-2.91936159134 -3.88975310326 -1.89960467815
-2.9086458683 -3.89876675606 -1.89991593361
-2.89959955215 -3.91003966331 -1.90134000778
-2.88732528687 -3.91696882248 -1.90066611767
-2.87729072571 -3.92693853378 -1.90148293972
-2.87041854858 -3.94127058983 -1.90441977978
-2.85725426674 -3.94698476791 -1.9032047987
-2.8451898098 -3.95419716835 -1.90273141861
-2.8252158165 -3.95033836365 -1.8969591856
-2.82153582573 -3.96925520897 -1.90214085579
-2.80515193939 -3.97032356262 -1.89878106117
-2.79742670059 -3.9836359024 -1.90129446983
-2.77766418457 -3.9797668457 -1.89562952518
-2.77777981758 -4.00440788269 -1.90355551243
-2.7634241581 -4.00826406479 -1.90160501003
-2.7452814579 -4.00654268265 -1.89703714848
-2.73233056068 -4.01232624054 -1.89604914188
-2.72917151451 -4.03255271912 -1.90189242363
-2.7147538662 -4.03619384766 -1.89992177486
-2.70282268524 -4.04350328445 -1.8996976614
-2.68926787376 -4.04836273193 -1.89834141731
-2.67799115181 -4.0566368103 -1.89860403538
-2.67040801048 -4.07054853439 -1.90151488781
-2.66176819801 -4.08291816711 -1.90371131897
-2.65012359619 -4.0907087326 -1.90378439426
-2.62869358063 -4.08330202103 -1.89681303501
-2.61911273003 -4.09422779083 -1.89838349819
-2.60721230507 -4.10154724121 -1.89829492569
-2.60523509979 -4.12457513809 -1.90547919273
-2.58847093582 -4.12424182892 -1.90188014507
-2.57360196114 -4.12684774399 -1.89966285229
-2.56020569801 -4.13176870346 -1.89853274822
-2.5506734848 -4.14293384552 -1.90028655529
-2.53682231903 -4.14708852768 -1.89883995056
-2.52540302277 -4.15520429611 -1.89922440052
-2.51527500153 -4.16546869278 -1.90060377121
-2.50331687927 -4.17272281647 -1.90062272549
-2.48244524002 -4.16502285004 -1.89385771751
-2.47524690628 -4.18021917343 -1.89752447605
-2.4704144001 -4.1995434761 -1.90306544304
-2.44973087311 -4.19190645218 -1.89640593529
-2.44677639008 -4.21461248398 -1.90348875523
-2.4371380806 -4.22593784332 -1.90543210506
-2.41883683205 -4.22219991684 -1.90060389042
-2.40472698212 -4.22568368912 -1.89905297756
-2.39708399773 -4.24056100845 -1.90263485909
-2.37851333618 -4.23608493805 -1.89755105972
-2.36276054382 -4.23650741577 -1.89469051361
-2.35453033447 -4.2504234314 -1.89787960052
-2.34468746185 -4.26150608063 -1.89981114864
-2.32441854477 -4.25356864929 -1.89328634739
-2.32447147369 -4.28287410736 -1.90334868431
-2.30344223976 -4.2733798027 -1.89617908001
-2.30031991005 -4.29711294174 -1.9037681818
-2.28688001633 -4.30167675018 -1.90287017822
-2.26364660263 -4.2876625061 -1.89378488064
-2.25338959694 -4.29811096191 -1.89553141594
-2.24244570732 -4.30729627609 -1.89673185349
-2.23747682571 -4.32807826996 -1.90304338932
-2.21990942955 -4.3245215416 -1.89866602421
-2.20971941948 -4.33529663086 -1.90060055256
-2.20160961151 -4.35024547577 -1.90437197685
-2.18277907372 -4.34398269653 -1.89887595177
-2.1740398407 -4.35776662827 -1.90216207504
-2.15685319901 -4.35460472107 -1.8980679512
-2.1473941803 -4.36702203751 -1.90078210831
-2.13344049454 -4.37032318115 -1.89954197407
-2.12149882317 -4.3777346611 -1.90010511875
-2.10893774033 -4.38387775421 -1.9001326561
-2.10173153877 -4.40123510361 -1.90502977371
-2.08041810989 -4.3890004158 -1.89713788033
-2.06891942024 -4.3973531723 -1.89817023277
-2.06004929543 -4.41137123108 -1.90165734291
-2.04452109337 -4.41114616394 -1.89901936054
-2.02674198151 -4.40593528748 -1.89426028728
-2.01741600037 -4.41907262802 -1.89740753174
-2.0096924305 -4.4358587265 -1.90212702751
-1.99187922478 -4.43037366867 -1.8973120451
-1.97945952415 -4.43680381775 -1.89762127399
-1.97153997421 -4.45341062546 -1.90229249001
-1.95474672318 -4.4499874115 -1.89842247963
-1.94435060024 -4.46109962463 -1.90077114105
-1.92870533466 -4.46016073227 -1.898001194
-1.91621112823 -4.46646308899 -1.89833152294
-1.90478312969 -4.47528362274 -1.89974558353
-1.8930311203 -4.48339033127 -1.90086936951
-1.87909495831 -4.48632574081 -1.89981603622
-1.86132359505 -4.47998952866 -1.89485955238
-1.85767257214 -4.50772666931 -1.90432488918
-1.83906280994 -4.49923563004 -1.89849686623
-1.82404828072 -4.49938488007 -1.89633965492
-1.81352770329 -4.51062631607 -1.89887297153
-1.79716491699 -4.50731706619 -1.8952974081
-1.7851960659 -4.51497745514 -1.89635300636
-1.77558124065 -4.52868509293 -1.89995896816
-1.76142156124 -4.53084850311 -1.89873480797
-1.75434684753 -4.55134296417 -1.90520238876
-1.73956489563 -4.55193710327 -1.90335023403
-1.72053086758 -4.5412311554 -1.89679789543
-1.71020317078 -4.55343198776 -1.89983308315
-1.69586884975 -4.55499982834 -1.89844548702
-1.67914450169 -4.55003261566 -1.89435601234
-1.6713565588 -4.56932210922 -1.90037894249
-1.65929114819 -4.57707262039 -1.9016109705
-1.64100348949 -4.56755781174 -1.89569032192
-1.62791609764 -4.57238960266 -1.89574599266
-1.61925768852 -4.58977890015 -1.9010181427
-1.60429263115 -4.58936166763 -1.8989276886
-1.5921163559 -4.59690332413 -1.900146842
-1.57718467712 -4.59646987915 -1.89808607101
-1.56586384773 -4.60656547546 -1.90038859844
-1.55376839638 -4.61446714401 -1.90179800987
-1.53977203369 -4.61673545837 -1.90090095997
-1.52271914482 -4.60970878601 -1.89619791508
-1.51443684101 -4.62926959991 -1.90244567394
-1.4995007515 -4.6285905838 -1.90038764477
-1.4847881794 -4.62850904465 -1.89859414101
-1.47458636761 -4.64254283905 -1.9026042223
-1.45837962627 -4.63767766953 -1.89888465405
-1.44676363468 -4.64737558365 -1.90114486217
-1.43348622322 -4.65179491043 -1.9012594223
-1.42066431046 -4.65771436691 -1.90200197697
-1.40579283237 -4.65688228607 -1.90000426769
-1.39295196533 -4.66274499893 -1.90075492859
-1.37930309772 -4.66591358185 -1.9004226923
-1.36676442623 -4.67286109924 -1.90164446831
-1.35248446465 -4.67385673523 -1.90045964718
-1.33966898918 -4.67990446091 -1.9013453722
-1.32309472561 -4.67272615433 -1.89687609673
-1.30825316906 -4.67149209976 -1.89484071732
-1.29925990105 -4.69126176834 -1.90133702755
-1.28318881989 -4.68554973602 -1.89751935005
-1.27062189579 -4.69256448746 -1.89887320995
-0.814547181129 -3.04286551476 -1.23036062717
-0.807147026062 -3.05029320717 -1.23242080212
-0.799593985081 -3.05725622177 -1.23430037498
-0.790075004101 -3.05672430992 -1.23316371441
-0.779519379139 -3.05206608772 -1.23037552834
-0.769319474697 -3.04865026474 -1.22810196877
-0.763172090054 -3.06135249138 -1.23233020306
-0.753667652607 -3.06068229675 -1.23118317127
-0.741480469704 -3.04890942574 -1.22558522224
-0.73587667942 -3.06419754028 -1.23087525368
-0.723721563816 -3.0521941185 -1.22521281242
-0.71346116066 -3.0479195118 -1.22266876698
-0.70353281498 -3.04491639137 -1.22064781189
-0.693766891956 -3.04249191284 -1.21887147427
-0.686091959476 -3.04924154282 -1.22078037262
-0.67652130127 -3.04758191109 -1.21933233738
-0.662831783295 -3.02701234818 -1.21033537388
-0.657444179058 -3.04425787926 -1.21647024155
-0.651369810104 -3.05871200562 -1.22149288654
-0.640195906162 -3.04923772812 -1.21696949005
-0.628272354603 -3.03581261635 -1.21088576317
-0.622239232063 -3.05082082748 -1.21615362167
-0.614519000053 -3.05782747269 -1.21823751926
-0.603579938412 -3.04873394966 -1.2139185667
-0.593230843544 -3.04233455658 -1.21068656445
-0.584275484085 -3.0429418087 -1.2102547884
-0.575960993767 -3.04690551758 -1.21116793156
-0.567229509354 -3.04870176315 -1.2112288475
-0.561340749264 -3.0660302639 -1.21746730804
-0.55044823885 -3.0560965538 -1.21288955212
-0.539450824261 -3.04518461227 -1.20793843269
-0.530061900616 -3.0430829525 -1.20649540424
-0.523172140121 -3.05545115471 -1.21079790592
-0.515209853649 -3.06182813644 -1.21273314953
-0.504601299763 -3.05237221718 -1.20840835571
-0.495224028826 -3.05010342598 -1.20694160461
-0.487677633762 -3.05918288231 -1.20997476578
-0.47731423378 -3.05054807663 -1.20601189137
-0.469044297934 -3.05516529083 -1.20729923248
-0.459003657103 -3.04815101624 -1.20400118828
-0.449747383595 -3.04611778259 -1.20268249512
-0.443035393953 -3.06153154373 -1.20826041698
-0.432494848967 -3.05052638054 -1.20342159271
-0.424841850996 -3.05980038643 -1.20659339428
-0.415391683578 -3.05619955063 -1.20469760895
-0.407213687897 -3.06195306778 -1.20649933815
-0.395850390196 -3.04342341423 -1.19874477386
-0.387010216713 -3.0438337326 -1.19846332073
-0.378210812807 -3.04453921318 -1.19830811024
-0.370225638151 -3.05193853378 -1.20079660416
-0.362377583981 -3.06080794334 -1.20387160778
-0.351261198521 -3.0417702198 -1.19598162174
-0.341613888741 -3.03474569321 -1.19282865524
-0.334130376577 -3.04702854156 -1.19727408886
-0.324631124735 -3.04104566574 -1.1945515871
-0.315736681223 -3.04049944878 -1.19397568703
-0.307508826256 -3.04647374153 -1.19596970081
-0.298872590065 -3.04858374596 -1.1964558363
-0.290737867355 -3.05604171753 -1.19904994965
-0.281870484352 -3.05597257614 -1.19869995117
-0.27338591218 -3.06013178825 -1.2000181675
-0.263925969601 -3.05323338509 -1.19701051712
-0.25453209877 -3.04659509659 -1.19411623478
-0.247020423412 -3.0627644062 -1.20017063618
-0.237240314484 -3.05091261864 -1.19525420666
-0.228348553181 -3.04995751381 -1.19461798668
-0.219835922122 -3.05414032936 -1.19600391388
-0.210796430707 -3.05099439621 -1.1945297718
-0.201549634337 -3.04438996315 -1.19171226025
-0.193306773901 -3.0529859066 -1.19485473633
-0.184564903378 -3.05409240723 -1.19507527351
-0.175026908517 -3.04142260551 -1.18991565704
-0.167116224766 -3.05713200569 -1.19586884975
-0.158229455352 -3.0556871891 -1.19512093067
-0.14980968833 -3.06356859207 -1.19803011417
-0.139699026942 -3.0356400013 -1.18694651127
-0.131738573313 -3.0537712574 -1.1938829422
-0.12255050987 -3.04395031929 -1.18990075588
-0.113655813038 -3.04041028023 -1.18838429451
-0.10534067452 -3.05302214622 -1.19319057465
-0.0965741872787 -3.05360269547 -1.19330394268
-0.0879407599568 -3.05887198448 -1.19525945187
-0.0785016342998 -3.03411650658 -1.18549311161
-0.0700495541096 -3.04603290558 -1.19006550312
-0.0614692568779 -3.05492544174 -1.1934658289
-0.0524127520621 -3.03911209106 -1.18722426891
-0.0436968505383 -3.04061174393 -1.18775618076
-0.0349074192345 -3.03640270233 -1.1860679388
-0.0262658093125 -3.04646539688 -1.18996417522
-0.0175640247762 -3.05604791641 -1.19368243217
-0.00878477096558 -3.05773901939 -1.1943281889
4.04394222642e-06 -3.04790306091 -1.19048142433
0.00877658464015 -3.05207061768 -1.19211423397
0.0175628177822 -3.05442786217 -1.19304966927
0.0263909697533 -3.06004047394 -1.19526660442
0.0350751765072 -3.0502910614 -1.19149291515
0.0439403131604 -3.05698847771 -1.19415342808
0.0525919720531 -3.04903483391 -1.19110059738
0.0612244307995 -3.04235672951 -1.18855559826
0.070278570056 -3.05563855171 -1.19381844997
0.0791324079037 -3.05818223953 -1.19489622116
0.0875311717391 -3.04434394836 -1.1895827055
0.0964821353555 -3.0504360199 -1.19206655025
0.104833289981 -3.03808283806 -1.18735206127
0.114487297833 -3.06243562698 -1.19699335098
0.122403822839 -3.04010629654 -1.18839812279
0.131748467684 -3.05381250381 -1.19389915466
0.140228971839 -3.04697990417 -1.19138050079
0.14885827899 -3.04394698143 -1.19035696983
0.158165246248 -3.05429029465 -1.19457471371
0.167037576437 -3.05554437637 -1.19524812698
0.175510168076 -3.04967904091 -1.19314610958
0.184281855822 -3.04927420616 -1.1931899786
0.193137437105 -3.05018305779 -1.19375801086
0.202035292983 -3.05160260201 -1.19453585148
0.211204722524 -3.05678582191 -1.19679749012
0.219905793667 -3.05499768257 -1.19633996487
0.227821752429 -3.04281282425 -1.19181978703
0.236784726381 -3.04494905472 -1.19291818142
0.246152549982 -3.051902771 -1.19591474533
0.255056321621 -3.05277204514 -1.19653761387
0.263365864754 -3.0466594696 -1.19443356991
0.273363918066 -3.05979394913 -1.19988596439
0.281345874071 -3.05019664764 -1.19643461704
0.290026038885 -3.04847359657 -1.19608080387
0.299311280251 -3.05297493935 -1.19817960262
0.30777105689 -3.04899048805 -1.19695806503
0.31696882844 -3.05228614807 -1.19860458374
0.326334536076 -3.05692577362 -1.20078980923
0.333552777767 -3.0416867733 -1.19517552853
0.342707872391 -3.04439163208 -1.19662046432
0.351439207792 -3.0432407856 -1.19656014442
0.362380713224 -3.06076478958 -1.20385491848
0.370607048273 -3.05501484871 -1.20200741291
0.378011822701 -3.04287147522 -1.19765210152
0.388286501169 -3.05380702019 -1.20239043236
0.397102862597 -3.05298948288 -1.20251309872
0.406353354454 -3.05542206764 -1.20392632484
0.413822770119 -3.0445959568 -1.20012414455
0.424295008183 -3.05580258369 -1.20501732826
0.429778158665 -3.03130674362 -1.1958398819
0.443882852793 -3.06733036041 -1.21054935455
0.451522380114 -3.05808353424 -1.20740735531
0.458465397358 -3.04452180862 -1.20256817341
0.468706607819 -3.05291152 -1.20640921593
0.475840121508 -3.04107379913 -1.20226681232
0.486114442348 -3.04932498932 -1.20607626438
0.49430462718 -3.04438972473 -1.20468127728
0.503169834614 -3.04366326332 -1.20496106148
0.512841641903 -3.04770445824 -1.20713949203
0.520590126514 -3.04032325745 -1.20480370522
0.532537221909 -3.05724573135 -1.21211111546
0.540386080742 -3.05041694641 -1.21001458168
0.549554586411 -3.05108833313 -1.21090245247
0.556701898575 -3.04064750671 -1.20738887787
0.568159937859 -3.05365753174 -1.21319830418
0.576271057129 -3.04850125313 -1.21180284023
0.589131236076 -3.06818699837 -1.22029614449
0.594972252846 -3.05122232437 -1.2142239809
0.603238463402 -3.04696679115 -1.21321547031
0.61336773634 -3.05205702782 -1.21593916416
0.622852027416 -3.05378365517 -1.21733534336
0.629618644714 -3.04227733612 -1.21346497536
0.639992594719 -3.04822921753 -1.21656763554
0.649790525436 -3.05125641823 -1.21851611137
0.660059511662 -3.05632853508 -1.22129440308
0.669946908951 -3.05946683884 -1.22331285477
0.677085340023 -3.05008435249 -1.22033429146
0.685636937618 -3.04718160629 -1.21995639801
0.695735871792 -3.05108952522 -1.22231650352
0.703052222729 -3.04279947281 -1.21979987621
0.714215874672 -3.05110740662 -1.22394835949
0.727611005306 -3.06856107712 -1.23178374767
0.731549441814 -3.04614329338 -1.22362375259
0.740278840065 -3.04393339157 -1.22358572483
0.750269472599 -3.04684710503 -1.22561872005
0.757495641708 -3.03854799271 -1.22315108776
0.770794332027 -3.05446052551 -1.23044335842
0.77878177166 -3.04914450645 -1.22919845581
0.792121112347 -3.06460690498 -1.23634457588
0.796372115612 -3.04490447044 -1.22931444645
0.811266303062 -3.06582736969 -1.23869788647
0.818242967129 -3.05663919449 -1.23593080044
0.825352311134 -3.04809641838 -1.23343062401
0.834028363228 -3.04541349411 -1.23330998421
0.844042479992 -3.04756832123 -1.23515999317
0.855731904507 -3.05560398102 -1.23940861225
0.862505495548 -3.04604911804 -1.2365334034
0.872181773186 -3.04678750038 -1.23784565926
0.88117992878 -3.04511260986 -1.23818910122
0.892190754414 -3.05030083656 -1.24133634567
0.903396070004 -3.05598306656 -1.24470031261
0.910230219364 -3.04686021805 -1.2420450449
0.920421004295 -3.04899191856 -1.24398732185
0.930390417576 -3.05029940605 -1.24560666084
0.938099205494 -3.04418969154 -1.24420773983
0.949251532555 -3.04921030998 -1.24736976624
0.957741320133 -3.04560899734 -1.24701750278
0.968076407909 -3.04783415794 -1.24906277657
0.975825846195 -3.04190039635 -1.24777519703
0.986659705639 -3.04554867744 -1.2504298687
0.996212542057 -3.04515504837 -1.25143873692
1.00767529011 -3.05049586296 -1.2548186779
1.01648449898 -3.04772305489 -1.25487470627
1.02636563778 -3.04813075066 -1.25625216961
1.03810966015 -3.05395579338 -1.2598773241
1.04398548603 -3.04251432419 -1.25638997555
1.05725765228 -3.05258440971 -1.26179814339
1.0644659996 -3.04506659508 -1.25995004177
1.07513916492 -3.04745125771 -1.2622102499
1.08366131783 -3.04369521141 -1.26193940639
1.09699177742 -3.05333375931 -1.26723766327
1.10617291927 -3.05129766464 -1.26770699024
1.11650776863 -3.0523955822 -1.26949107647
1.12978816032 -3.06139874458 -1.27458095551
1.13451564312 -3.04721498489 -1.27002799511
1.14602589607 -3.05128026009 -1.27309000492
1.1479871273 -3.03001451492 -1.26558876038
1.16763532162 -3.05533885956 -1.27756285667
1.18027865887 -3.06200051308 -1.28176152706
1.18288779259 -3.04268074036 -1.27509224415
1.19286513329 -3.04242253304 -1.27641558647
1.20349609852 -3.0437643528 -1.27842450142
1.21442890167 -3.04578280449 -1.28073310852
1.22654902935 -3.05066299438 -1.28426241875
1.23766827583 -3.05293607712 -1.2867115736
1.24468183517 -3.0450694561 -1.28489851952
1.25922966003 -3.05555462837 -1.29084479809
1.2712982893 -3.05984449387 -1.29419541359
1.27940273285 -3.05454182625 -1.2935025692
1.28707873821 -3.04825091362 -1.29239988327
1.29761350155 -3.04871749878 -1.29417359829
1.31068372726 -3.05502748489 -1.29844617844
1.32103049755 -3.05488109589 -1.29999232292
1.32883930206 -3.04885435104 -1.2990475893
1.34313905239 -3.05763840675 -1.30442988873
1.35214710236 -3.05427384377 -1.30464708805
1.35980677605 -3.04787874222 -1.30357956886
1.37001466751 -3.04718947411 -1.30496358871
1.38074195385 -3.04759740829 -1.30683243275
1.39101099968 -3.04693484306 -1.30825734138
1.40600323677 -3.05648970604 -1.31408977509
1.41825127602 -3.0599193573 -1.31731140614
1.42435348034 -3.05007648468 -1.31483113766
1.43645739555 -3.05307531357 -1.31789827347
1.44511294365 -3.04869365692 -1.31779432297
1.45577514172 -3.04851722717 -1.31952130795
1.46761918068 -3.05073904991 -1.32230341434
1.47576534748 -3.04523611069 -1.32175123692
1.49231636524 -3.05696845055 -1.32869982719
1.49791109562 -3.04618811607 -1.32588005066
1.50403046608 -3.03656029701 -1.3235656023
1.52419173717 -3.055154562 -1.33357453346
1.53404545784 -3.05290770531 -1.33451282978
1.5405446291 -3.0440018177 -1.33254992962
1.55066454411 -3.04226255417 -1.3337341547
1.56497693062 -3.04865241051 -1.33850204945
1.57750856876 -3.05144453049 -1.34171307087
1.58660614491 -3.04753828049 -1.34199512005
1.59415876865 -3.04067587852 -1.34098541737
1.60656654835 -3.04304146767 -1.34405970573
1.62555253506 -3.05768418312 -1.3525851965
1.63091504574 -3.04661154747 -1.34975528717
1.64990532398 -3.0609087944 -1.35818481445
1.64962852001 -3.03944635391 -1.35075986385
1.66265034676 -3.04254722595 -1.3542560339
1.67558038235 -3.04537439346 -1.35765254498
1.68704414368 -3.04545116425 -1.35984289646
1.69586372375 -3.04072070122 -1.35990154743
1.71186923981 -3.04878592491 -1.36570346355
1.71660399437 -3.03673934937 -1.36251175404
1.73619866371 -3.05089974403 -1.37109851837
1.75065469742 -3.0558359623 -1.37557268143
1.76289403439 -3.05679655075 -1.37828028202
1.76756632328 -3.0446434021 -1.37508559227
1.77667939663 -3.04018211365 -1.37537145615
1.78797602654 -3.0394244194 -1.37734794617
1.80266165733 -3.04433250427 -1.38191437721
1.81145250797 -3.03921914101 -1.38195097446
1.8241455555 -3.04060912132 -1.38496136665
1.83797860146 -3.04380106926 -1.38881576061
1.8515433073 -3.04644227028 -1.3924434185
1.86415326595 -3.04742002487 -1.39533364773
1.87124598026 -3.03935527802 -1.39409792423
1.88398647308 -3.04043912888 -1.39707314968
1.89810466766 -3.04364967346 -1.40104937553
1.91945421696 -3.05827140808 -1.41031384468
1.92081654072 -3.04099440575 -1.40488684177
1.94419884682 -3.05850696564 -1.41555309296
1.94878327847 -3.04634284973 -1.41250991821
1.96474123001 -3.0519285202 -1.41771245003
1.97770440578 -3.05275058746 -1.4207290411
1.99201226234 -3.0555536747 -1.42469239235
1.99554145336 -3.0418202877 -1.42095756531
2.00908184052 -3.04335141182 -1.42436444759
2.02559256554 -3.04926347733 -1.4298504591
2.04028725624 -3.05231308937 -1.43402445316
2.05133366585 -3.04982829094 -1.43562114239
2.06392121315 -3.04957866669 -1.43829023838
2.07541799545 -3.04765701294 -1.44019150734
2.09448027611 -3.05672740936 -1.44731664658
2.09871649742 -3.04410815239 -1.44419181347
2.12042021751 -3.05675029755 -1.4530749321
2.12788081169 -3.04875636101 -1.45217633247
2.14195680618 -3.05020618439 -1.45579338074
2.1486723423 -3.04114556313 -1.45441067219
2.17083263397 -3.05384755135 -1.46346318722
2.17485952377 -3.04096508026 -1.46027934551
2.19809961319 -3.05486512184 -1.46998202801
2.19838547707 -3.03681254387 -1.46432971954
2.21469163895 -3.04089808464 -1.46936321259
2.23237466812 -3.04673743248 -1.47527909279
2.24415206909 -3.04441785812 -1.47727322578
2.25695943832 -3.04343819618 -1.47993946075
2.27337026596 -3.04722261429 -1.4849511385
2.28941369057 -3.05039453506 -1.48969745636
2.29537248611 -3.04009389877 -1.48788285255
2.3099758625 -3.04121828079 -1.49167644978
2.33364033699 -3.05410909653 -1.50128304958
2.33704590797 -3.04041171074 -1.49784576893
2.36387634277 -3.05709123611 -1.50940382481
2.3654897213 -3.04107403755 -1.50484633446
2.37982344627 -3.04142260551 -1.50839745998
2.39679813385 -3.04504179955 -1.51360273361
2.41746282578 -3.05319786072 -1.52110445499
2.42855739594 -3.04916071892 -1.52256453037
2.43876838684 -3.04398608208 -1.52347457409
2.45795202255 -3.04992389679 -1.52997589111
2.46551561356 -3.04137516022 -1.52923619747
2.48878359795 -3.05210256577 -1.53822052479
2.49708485603 -3.04437446594 -1.53793656826
2.51576471329 -3.04923200607 -1.54403710365
2.53142166138 -3.05030655861 -1.54825913906
2.54320383072 -3.04664182663 -1.55010294914
2.56887984276 -3.05948257446 -1.5603864193
2.57179808617 -3.04514169693 -1.55683600903
2.59499764442 -3.05475592613 -1.56555819511
2.60517477989 -3.0489320755 -1.56640458107
2.6125562191 -3.03983592987 -1.56558287144
2.63905572891 -3.05287408829 -1.57619798183
2.6438741684 -3.04073834419 -1.5738492012
2.67481637001 -3.05852627754 -1.58702886105
2.68846344948 -3.05635857582 -1.58990716934
2.68449735641 -3.03421926498 -1.58239758015
2.70953369141 -3.0448372364 -1.59199011326
2.72077083588 -3.03982615471 -1.5934523344
2.74078083038 -3.04452776909 -1.60003972054
2.7622988224 -3.05075001717 -1.60747587681
2.78146004677 -3.05422234535 -1.61351132393
2.7809176445 -3.03605103493 -1.6081277132
2.80694961548 -3.04684233665 -1.61811029911
2.82657003403 -3.05049800873 -1.62435972691
2.83599877357 -3.04308247566 -1.62474489212
2.85964941978 -3.0508313179 -1.63326382637
2.8707253933 -3.0450592041 -1.63458430767
2.882365942 -3.03985381126 -1.63623058796
2.90177488327 -3.04275894165 -1.64227688313
2.92278528214 -3.04720544815 -1.64920413494
2.93006587029 -3.03727221489 -1.64837944508
2.95563364029 -3.04620432854 -1.65783071518
2.97979331017 -3.05349373817 -1.66645228863
2.98921751976 -3.04558873177 -1.6668201685
3.00560426712 -3.04472923279 -1.67107081413
3.02445077896 -3.04625797272 -1.67667412758
3.04125332832 -3.04562306404 -1.68112909794
3.05618953705 -3.04303717613 -1.68454360962
3.08639860153 -3.05550074577 -1.69634687901
3.09608602524 -3.04752016068 -1.696849823
3.11769413948 -3.05119562149 -1.70387887955
3.13071131706 -3.04636716843 -1.70620048046
3.15043926239 -3.04798388481 -1.71217060089
3.16337347031 -3.04294300079 -1.7144395113
3.18855452538 -3.04956889153 -1.72332906723
3.20202159882 -3.04487514496 -1.72587037086
3.21447849274 -3.03917455673 -1.72786903381
3.23348593712 -3.03959131241 -1.73338270187
3.25566101074 -3.0428571701 -1.74057435989
3.28077602386 -3.04871058464 -1.74930953979
3.30029988289 -3.04922318459 -1.7550393343
3.31795454025 -3.04790377617 -1.7597618103
3.34550333023 -3.0555267334 -1.76970767975
3.35455989838 -3.04615974426 -1.76985955238
3.37255883217 -3.04486274719 -1.77473092079
3.38944792747 -3.04247355461 -1.77900934219
3.42064023018 -3.05276465416 -1.79076826572
3.43761634827 -3.05020976067 -1.79505836964
3.46102142334 -3.05324244499 -1.80269002914
3.46975922585 -3.04326105118 -1.80267763138
3.48847031593 -3.04197669029 -1.80784881115
3.51945972443 -3.05123591423 -1.81935608387
3.5393269062 -3.05068492889 -1.82508575916
3.55475902557 -3.04622220993 -1.82852101326
3.57553553581 -3.04624629021 -1.83469676971
3.59615087509 -3.04601430893 -1.84077489376
3.618247509 -3.04691290855 -1.84759521484
3.63889884949 -3.04647016525 -1.85366129875
3.65659785271 -3.04345393181 -1.85821342468
3.68392777443 -3.04831981659 -1.86764168739
3.69185042381 -3.03704094887 -1.86722505093
3.71196508408 -3.03574085236 -1.8729776144
3.7377474308 -3.03893947601 -1.88157165051
3.76085281372 -3.03981137276 -1.88879668713
3.79480290413 -3.04926085472 -1.90143764019
3.80046129227 -3.03587245941 -1.89989280701
3.80608820915 -3.02248764038 -1.89835488796
3.81086683273 -3.00846219063 -1.8964176178
3.8308236599 -3.00638437271 -1.90204071999
3.84597945213 -3.00045585632 -1.9052759409
3.85542416573 -2.99003767967 -1.90568935871
3.85523748398 -2.97218632698 -1.90136647224
3.85948801041 -2.95781588554 -1.89926218987
3.86655116081 -2.94562649727 -1.89856362343
3.87275505066 -2.93279933929 -1.89746284485
3.88004136086 -2.9208073616 -1.8969117403
3.88624000549 -2.90801119804 -1.8958479166
3.90032935143 -2.90110397339 -1.89864552021
3.91312527657 -2.89318871498 -1.90081858635
3.91297101974 -2.87571644783 -1.89672064781
3.91806149483 -2.86214995384 -1.89519274235
3.9338080883 -2.85634851456 -1.89883029461
3.94437718391 -2.84674429893 -1.89997458458
3.94995212555 -2.83353662491 -1.89872908592
3.97289586067 -2.83273530006 -1.90583634377
3.97157382965 -2.81460905075 -1.90131342411
3.96915030479 -2.7957880497 -1.8962982893
3.99427294731 -2.79634165764 -1.90445291996
3.97955417633 -2.76902699471 -1.89363253117
3.99754667282 -2.76452732086 -1.89840519428
4.01004695892 -2.7561674118 -1.9005715847
4.01566743851 -2.74306893349 -1.89949059486
4.02370643616 -2.73163175583 -1.89957153797
4.0364947319 -2.72339749336 -1.90190553665
4.0416841507 -2.71002626419 -1.90067267418
4.05266618729 -2.70053696632 -1.90217900276
4.05009746552 -2.68204712868 -1.89734721184
4.05995988846 -2.67182278633 -1.8983618021
4.06922292709 -2.66118907928 -1.8991086483
4.08120203018 -2.65230679512 -1.90113353729
4.07820606232 -2.63371825218 -1.89620387554
4.08353710175 -2.62055945396 -1.89517259598
4.09799814224 -2.61324071884 -1.89839017391
4.11421060562 -2.606975317 -1.90242135525
4.11515665054 -2.59102749825 -1.89940726757
4.11849975586 -2.57663178444 -1.89752435684
4.1381778717 -2.57242274284 -1.90317606926
4.1342382431 -2.55352830887 -1.89798092842
4.14235830307 -2.54212427139 -1.89834654331
4.15049123764 -2.53072142601 -1.89873218536
4.16423606873 -2.52271199226 -1.90169501305
4.1627612114 -2.50549077988 -1.89772498608
4.17514419556 -2.49662399292 -1.90009081364
4.18237113953 -2.48465371132 -1.90012180805
4.1891374588 -2.47241091728 -1.89995956421
4.20075941086 -2.46301794052 -1.90201199055
4.21393966675 -2.45449709892 -1.90477740765
4.21551561356 -2.43921470642 -1.90231287479
4.22104120255 -2.42624425888 -1.90165138245
4.22376537323 -2.41168522835 -1.89974796772
4.23124456406 -2.39985537529 -1.90000152588
4.24083757401 -2.3892121315 -1.90121769905
4.23523902893 -2.37004685402 -1.89564609528
4.26050376892 -2.36812996864 -1.90389966965
4.25882530212 -2.35119962692 -1.90012180805
4.26765632629 -2.3400952816 -1.90105319023
4.27013635635 -2.32551622391 -1.89917254448
4.28095054626 -2.31547665596 -1.90101444721
4.28036785126 -2.29928398132 -1.89781308174
4.28731441498 -2.28716087341 -1.89797031879
4.2919793129 -2.27382659912 -1.89713430405
4.29628372192 -2.2603161335 -1.89615738392
4.32149219513 -2.25774335861 -1.90441119671
4.31945705414 -2.24089956284 -1.90066790581
4.31341648102 -2.22205424309 -1.89519178867
4.32401323318 -2.21180987358 -1.89704668522
4.3370552063 -2.20277643204 -1.89998292923
4.34818315506 -2.1927292347 -1.90208888054
4.35297298431 -2.17947411537 -1.90143609047
4.35259580612 -2.16366076469 -1.89854681492
4.36841154099 -2.15588641167 -1.90273475647
4.36546087265 -2.13884854317 -1.89876389503
4.3666009903 -2.12386536598 -1.89659678936
4.38083267212 -2.11523842812 -1.90012979507
4.40803146362 -2.11276912689 -1.90928506851
4.39336633682 -2.0902326107 -1.90032291412
4.40855550766 -2.08194065094 -1.90429651737
4.40114307404 -2.06298971176 -1.89852547646
4.40727901459 -2.05043554306 -1.89862239361
4.41807413101 -2.04003119469 -1.90073895454
4.42297315598 -2.02689003944 -1.90033221245
4.42610025406 -2.01294970512 -1.89918208122
4.41904687881 -1.99443328381 -1.8936880827
4.44130802155 -1.98913431168 -1.90076959133
4.45600891113 -1.98036134243 -1.90461730957
4.45773458481 -1.96580433846 -1.90293204784
4.43751764297 -1.94167304039 -1.89191150665
4.45428848267 -1.93377625942 -1.89668416977
4.47024202347 -1.92545092106 -1.90111291409
4.47783899307 -1.91348338127 -1.90199673176
4.47698020935 -1.89791727066 -1.89930713177
4.48371553421 -1.88558757305 -1.89985740185
4.49562120438 -1.87540566921 -1.90261006355
4.49230909348 -1.85888290405 -1.89893937111
4.49334764481 -1.84420406818 -1.89712977409
4.51221323013 -1.83681082726 -1.90285813808
4.49674129486 -1.81546354294 -1.89412510395
4.51970386505 -1.80964314938 -1.90159845352
4.51750040054 -1.79371201992 -1.89849448204
4.52736330032 -1.78258085251 -1.90047824383
4.52291154861 -1.76582944393 -1.89647114277
4.52048492432 -1.74992513657 -1.89333677292
4.53836965561 -1.74186587334 -1.89872288704
4.54681682587 -1.73013031483 -1.90016841888
4.54957151413 -1.71622478962 -1.89925038815
4.55084085464 -1.70177805424 -1.8977304697
4.5722322464 -1.69481360912 -1.90461146832
4.56068325043 -1.6756387949 -1.89778661728
4.56634235382 -1.66283690929 -1.89814472198
4.5784239769 -1.65234732628 -1.90118479729
4.57790136337 -1.63730216026 -1.89900577068
4.58877754211 -1.62633061409 -1.90157043934
4.58645963669 -1.61068546772 -1.89868354797
4.59579753876 -1.59914112091 -1.90063869953
4.59979295731 -1.58572423458 -1.90039813519
4.60061788559 -1.57122814655 -1.89886534214
4.61446475983 -1.56116139889 -1.90272057056
4.60945129395 -1.54471421242 -1.89881455898
4.6225399971 -1.53433609009 -1.90238189697
4.62980461121 -1.52198803425 -1.90356338024
4.63252925873 -1.50814342499 -1.90289354324
4.62604761124 -1.49134111404 -1.89846241474
4.6339802742 -1.47920846939 -1.89996528625
4.62674999237 -1.46226024628 -1.89526975155
4.64602565765 -1.45367765427 -1.90144622326
4.6489109993 -1.43992316723 -1.90092539787
4.64593267441 -1.42437887192 -1.8980256319
4.65430736542 -1.41232395172 -1.89978063107
4.66300487518 -1.40033900738 -1.90168011189
4.66900587082 -1.3875232935 -1.90249300003
4.67919826508 -1.37592768669 -1.90502679348
4.6774559021 -1.36082088947 -1.90271735191
4.67588806152 -1.34579944611 -1.90049803257
4.66835165024 -1.32911264896 -1.89587438107
4.67380237579 -1.31615352631 -1.89654386044
4.682554245 -1.3041036129 -1.89856624603
4.69266605377 -1.29239702225 -1.90115213394
4.68394947052 -1.27552366257 -1.8961275816
4.68858909607 -1.26232278347 -1.89652919769
4.69786787033 -1.25035023689 -1.89882087708
4.69904184341 -1.23621070385 -1.89785146713
4.70567750931 -1.22350561619 -1.89910316467
4.7121348381 -1.21073567867 -1.9002969265
4.71503400803 -1.19704425335 -1.90007066727
4.72030591965 -1.18395125866 -1.90081608295
4.72536325455 -1.17079353333 -1.90148961544
4.7255115509 -1.15642428398 -1.90020394325
4.75056171417 -1.14809250832 -1.90894210339
4.71986913681 -1.12632608414 -1.8952999115
4.74179887772 -1.11716377735 -1.90280866623
4.75468540192 -1.10578477383 -1.90669667721
4.74005842209 -1.08803129196 -1.89956903458
4.75348472595 -1.07673990726 -1.9037014246
4.7426905632 -1.05997288227 -1.89815068245
4.74242448807 -1.04561066628 -1.8968334198
4.7548327446 -1.0340243578 -1.90059995651
4.77016592026 -1.02300858498 -1.90554559231
4.76393842697 -1.00735902786 -1.9018933773
4.76078033447 -0.992404282093 -1.8994859457
4.76672554016 -0.979355871677 -1.90072703362
4.76234436035 -0.964197933674 -1.89786708355
4.76229286194 -0.949946522713 -1.89675068855
4.78066587448 -0.939331829548 -1.90298521519
4.76863050461 -0.922739505768 -1.89713072777
4.78699398041 -0.912026405334 -1.90338563919
4.77418470383 -0.895373225212 -1.89726126194
4.77117395401 -0.880620121956 -1.89505112171
4.77565813065 -0.867261111736 -1.89583432674
4.78032016754 -0.853922009468 -1.89670300484
4.80593776703 -0.844251036644 -1.90589666367
4.79533004761 -0.828186273575 -1.90073800087
4.79715585709 -0.81430888176 -1.90052604675
4.78580617905 -0.798237085342 -1.89511275291
4.81195545197 -0.78838968277 -1.90456235409
4.80687046051 -0.773375988007 -1.90166199207
4.80575037003 -0.759031653404 -1.90034794807
4.81150531769 -0.745772361755 -1.90176808834
4.80807304382 -0.731094837189 -1.89957308769
4.81715297699 -0.718315720558 -1.90233695507
4.80968475342 -0.703076303005 -1.89858162403
4.80366325378 -0.688099861145 -1.89541625977
4.80549097061 -0.674271702766 -1.89536488056
4.8177485466 -0.66187697649 -1.89944124222
4.81721305847 -0.647701621056 -1.89848840237
4.82615947723 -0.634787380695 -1.90128707886
4.82539892197 -0.620583117008 -1.90027701855
4.82366132736 -0.606270968914 -1.89889872074
4.83215761185 -0.593235552311 -1.90156435966
4.8454656601 -0.580737113953 -1.90613651276
4.82888317108 -0.564675569534 -1.89896690845
4.8436794281 -0.552298069 -1.90415346622
4.84635686874 -0.538497030735 -1.90458965302
4.83727264404 -0.523416697979 -1.90042042732
4.83392906189 -0.509002506733 -1.89852428436
4.8404955864 -0.495630949736 -1.90053582191
4.84169626236 -0.48169568181 -1.90045583248
4.84922599792 -0.468372821808 -1.90287518501
4.8355884552 -0.453030943871 -1.89700496197
4.83798646927 -0.439231574535 -1.89744257927
4.84864377975 -0.426151484251 -1.90113389492
4.84324121475 -0.411651790142 -1.89854383469
4.85049581528 -0.39822936058 -1.90093111992
4.84963512421 -0.384128808975 -1.9001532793
4.8511557579 -0.370221346617 -1.90032434464
4.85210990906 -0.35626962781 -1.90028905869
4.86353492737 -0.343056917191 -1.90436947346
4.85557699203 -0.328472673893 -1.90087604523
4.84279918671 -0.313627690077 -1.89551305771
4.85394716263 -0.300342082977 -1.89953064919
4.86111402512 -0.286762267351 -1.90200483799
4.85397386551 -0.272343158722 -1.8988969326
4.84763526917 -0.258012413979 -1.89611935616
4.85547161102 -0.244436070323 -1.89890182018
4.86356592178 -0.230830848217 -1.90180003643
4.84923362732 -0.216183036566 -1.89594495296
4.86073970795 -0.202698841691 -1.90020787716
4.86277294159 -0.188783988357 -1.90078282356
4.85698413849 -0.174579381943 -1.89831602573
4.85714673996 -0.160607784986 -1.89819121361
4.8582110405 -0.146665140986 -1.89843475819
4.85690069199 -0.132653921843 -1.89776575565
4.86741352081 -0.118941366673 -1.90173208714
4.86904478073 -0.104978814721 -1.90224373341
4.85941314697 -0.0907981619239 -1.89837098122
4.86593151093 -0.0769297331572 -1.90082323551
4.85737085342 -0.0628300383687 -1.8974006176
4.86311244965 -0.0489244945347 -1.89958071709
4.8594379425 -0.0349190868437 -1.89809846878
4.85604810715 -0.0209366064519 -1.89674305916
4.85793161392 -0.00698153721169 -1.89746308327
4.86510801315 0.00699185021222 -1.90026605129
4.86561393738 0.0209778491408 -1.90047931671
4.86890125275 0.0349870882928 -1.90179479122
4.86209630966 0.0489142760634 -1.89918386936
4.85944795609 0.0628569126129 -1.89821219444
4.86112642288 0.0768537670374 -1.89894628525
4.86617231369 0.0909244567156 -1.90101146698
4.85205936432 0.104612596333 -1.89560782909
4.86514568329 0.118885949254 -1.90084600449
4.87325668335 0.133100658655 -1.90415668488
4.86262321472 0.146798342466 -1.90015888214
4.86788749695 0.160962954164 -1.90238893032
4.86853075027 0.174994423985 -1.90282905102
4.86814451218 0.188992530107 -1.90288257599
4.86653518677 0.202940523624 -1.90247368813
4.87088298798 0.217148184776 -1.90440928936
4.86429166794 0.230865314603 -1.90208399296
4.84595918655 0.243957206607 -1.89518177509
4.85882472992 0.258607953787 -1.90049612522
4.84401416779 0.271784365177 -1.89500081539
4.8466258049 0.28590759635 -1.89633607864
4.85517644882 0.300418138504 -1.90001177788
4.85841083527 0.314638733864 -1.90162360668
4.85820436478 0.328650414944 -1.90190458298
4.85542345047 0.342484742403 -1.90119338036
4.85497426987 0.356479942799 -1.9014108181
4.85411500931 0.370447158813 -1.90148341656
4.84954833984 0.384121924639 -1.90011930466
4.85675430298 0.398743212223 -1.90338385105
4.86061096191 0.413128137589 -1.90535283089
4.83268070221 0.42474848032 -1.89487481117
4.84713506699 0.440062135458 -1.90103054047
4.85282707214 0.454645991325 -1.90376758575
4.83657455444 0.467150866985 -1.89791071415
4.8334980011 0.480880022049 -1.89723777771
4.8357925415 0.495149403811 -1.89868927002
4.83326721191 0.508932828903 -1.89826440811
4.83999586105 0.523711383343 -1.9014903307
4.83091592789 0.536781251431 -1.89852142334
4.83294153214 0.551073670387 -1.89993214607
4.82679748535 0.564431667328 -1.89814662933
4.82800674438 0.578644633293 -1.89926838875
4.82484102249 0.59233725071 -1.89868497849
4.83469343185 0.607657551765 -1.90324163437
4.81984376907 0.619868755341 -1.89808940887
4.82106018066 0.634116709232 -1.89927840233
4.82926893234 0.64932256937 -1.9032394886
4.81108617783 0.660961687565 -1.89681458473
4.82049894333 0.676377475262 -1.90128421783
4.82017326355 0.690464794636 -1.90193068981
4.80946063995 0.703043580055 -1.89849328995
4.81458473206 0.717932701111 -1.90132260323
4.79895210266 0.729707956314 -1.89596962929
4.80923271179 0.745420098305 -1.90086984634
4.78849077225 0.756305634975 -1.89352297783
4.80040502548 0.772335708141 -1.89910411835
4.7886633873 0.784573495388 -1.89534342289
4.80169487 0.800887167454 -1.90140450001
4.79329252243 0.813653111458 -1.89899551868
4.77565908432 0.824788868427 -1.89294087887
4.80717086792 0.844467580318 -1.90638554096
4.79919433594 0.8572935462 -1.9041916132
4.7813615799 0.868296861649 -1.89809846878
4.78110837936 0.882453739643 -1.8989969492
4.77478742599 0.895486295223 -1.89750099182
4.78289461136 0.911245405674 -1.90175569057
4.76282978058 0.921617090702 -1.89482307434
4.77103805542 0.937440097332 -1.89915263653
4.76830673218 0.951146125793 -1.8991458416
4.77323722839 0.966403305531 -1.90220797062
4.75259304047 0.976452291012 -1.89509177208
4.75351047516 0.990888834 -1.89658534527
4.74811172485 1.00401246548 -1.89557492733
4.76530885696 1.02196681499 -1.9036052227
4.74837827682 1.03262066841 -1.89801979065
4.75695610046 1.04881465435 -1.90264582634
4.73833751678 1.05900001526 -1.89640843868
4.74418449402 1.0746332407 -1.89997696877
4.72426462173 1.08440601826 -1.89323985577
4.73556470871 1.1013379097 -1.8990291357
4.73455667496 1.115457654 -1.89990270138
4.73871564865 1.13082361221 -1.90286803246
4.71169185638 1.13869857788 -1.89332282543
4.73236322403 1.15810096264 -1.90295898914
4.73448085785 1.17305266857 -1.90515851974
4.71341228485 1.18222224712 -1.89804017544
4.7147936821 1.19698321819 -1.89997398853
4.70883274078 1.20988738537 -1.89896535873
4.70319795609 1.22286093235 -1.8981025219
4.69831466675 1.23601937294 -1.89755773544
4.70472383499 1.25217497349 -1.90159201622
4.69329404831 1.26358950138 -1.898432374
4.69041204453 1.27728354931 -1.89874374866
4.68207359314 1.28947973251 -1.89686071873
4.68334150314 1.30432283878 -1.89888548851
4.70155620575 1.32396912575 -1.90780591965
4.66856908798 1.32917463779 -1.89596271515
4.67460823059 1.34543120861 -1.89997792244
4.66001653671 1.3557472229 -1.89562320709
4.65838956833 1.36980891228 -1.89655518532
4.67134714127 1.38821911812 -1.90344703197
4.66322898865 1.40040636063 -1.90177154541
4.65068387985 1.41122448444 -1.89830172062
4.65278720856 1.42648041248 -1.90082597733
4.65642929077 1.44225180149 -1.90399956703
4.65355205536 1.45603251457 -1.90452647209
4.62541294098 1.46183753014 -1.89472186565
4.63028144836 1.47802770138 -1.89844858646
4.6306476593 1.49282407761 -1.90035009384
4.62363195419 1.50524675846 -1.89923870564
4.62274646759 1.51966762543 -1.9006613493
4.61030864716 1.53027617931 -1.89734816551
4.60912179947 1.54460382462 -1.89867901802
4.61350107193 1.56083536148 -1.90232312679
4.62239742279 1.57866644859 -1.90785467625
4.59034585953 1.58246731758 -1.89649510384
4.59736347198 1.59968590736 -1.90128624439
4.59981584549 1.61537599564 -1.90421271324
4.58784580231 1.62600040436 -1.90118432045
4.58459997177 1.63969779015 -1.90178442001
4.59457683563 1.65817677975 -1.90789222717
4.5718960762 1.6648594141 -1.90045332909
4.57457876205 1.68074417114 -1.90356886387
4.56133174896 1.69077312946 -1.90007078648
4.55933618546 1.70495486259 -1.90127301216
4.55280971527 1.71744632721 -1.90060210228
4.5390329361 1.72716844082 -1.89691543579
4.54398441315 1.74402081966 -1.90107178688
4.53276729584 1.75467967987 -1.89848101139
4.53293323517 1.76974225044 -1.90067338943
4.51331567764 1.7770498991 -1.89458155632
4.5275478363 1.797701478 -1.90271699429
4.5220952034 1.81060063839 -1.90260457993
4.508061409 1.82003366947 -1.89889323711
4.5038189888 1.83339369297 -1.89931821823
4.50588035583 1.84934782982 -1.90242123604
4.49609375 1.8604490757 -1.90053927898
4.50311279297 1.87853085995 -1.90578067303
4.49516057968 1.89040064812 -1.90470695496
4.48743629456 1.90234994888 -1.90374290943
4.46890830994 1.90966713428 -1.89820337296
4.45555305481 1.91912400723 -1.89486598969
4.46225881577 1.93723642826 -1.90007781982
4.46038722992 1.95167970657 -1.90166175365
4.45862388611 1.96619641781 -1.90331161022
4.44632673264 1.97605836391 -1.90047895908
4.4493598938 1.9927406311 -1.90421569347
4.44601774216 2.00660586357 -1.90524578094
4.4291009903 2.01431441307 -1.90046966076
4.42509698868 2.02786326408 -1.90124475956
4.41987037659 2.04086041451 -1.90151166916
4.4045882225 2.0491836071 -1.89746308327
4.40275144577 2.06374359131 -1.89921939373
4.39320802689 2.07469272614 -1.89766705036
4.3965959549 2.09176921844 -1.90171968937
4.38951301575 2.10389328003 -1.90126395226
4.37316131592 2.11153435707 -1.89680230618
4.38380146027 2.13223147392 -1.90406775475
4.3759226799 2.1439743042 -1.90331435204
4.3509016037 2.14724493027 -1.89510810375
4.35187673569 2.16330337524 -1.89823329449
4.35439395905 2.18018555641 -1.90205681324
4.34866952896 2.19297456741 -1.90230166912
4.32490539551 2.19660544395 -1.89466023445
4.31613588333 2.20778036118 -1.89359068871
4.32904624939 2.23010611534 -1.90205919743
4.32516241074 2.2438595295 -1.90317869186
4.30383253098 2.24851703644 -1.89662885666
4.30739831924 2.26616358757 -1.90106272697
4.29796028137 2.27699518204 -1.89977812767
4.28666496277 2.2868142128 -1.89768278599
4.29294633865 2.30604052544 -1.90339004993
4.26608657837 2.30743694305 -1.89441370964
4.27046108246 2.32569336891 -1.89931702614
4.26757240295 2.3400490284 -1.90101563931
4.25870227814 2.35113167763 -1.90006697178
4.25030612946 2.36246180534 -1.89934277534
4.23616695404 2.37056589127 -1.89606118202
4.23248624802 2.38450717926 -1.89747369289
4.21670150757 2.39160704613 -1.893471241
4.20804357529 2.40270853043 -1.89267659187
4.20925951004 2.41947221756 -1.89634370804
4.21022605896 2.43615412712 -1.89992582798
4.20257949829 2.44788002968 -1.8996424675
4.20101213455 2.46316599846 -1.90212631226
4.1877322197 2.47158169746 -1.89932227135
4.18830299377 2.48817777634 -1.90281689167
4.17117071152 2.49424815178 -1.89828252792
4.17114067078 2.5105342865 -1.90154504776
4.16946363449 2.52587890625 -1.90408241749
4.1553812027 2.53370332718 -1.90096926689
4.15049743652 2.54711890221 -1.90207636356
4.13675022125 2.55507969856 -1.89913403988
4.12482452393 2.56412172318 -1.89703476429
4.11146402359 2.57222986221 -1.89428257942
4.12883901596 2.59964251518 -1.90572273731
4.09214258194 2.59299182892 -1.89221715927
4.09480142593 2.61120223999 -1.89690935612
4.09061431885 2.62510108948 -1.89845693111
4.09024190903 2.64149093628 -1.90179991722
4.07481575012 2.64815664291 -1.89815866947
4.06186294556 2.65637564659 -1.89567375183
4.05841350555 2.67080521584 -1.89763879776
4.0615940094 2.68966031075 -1.90273296833
4.04499149323 2.69542264938 -1.89857661724
4.04842329025 2.71454501152 -1.90384173393
4.02684879303 2.71688938141 -1.89736056328
4.01155519485 2.72338271141 -1.89383506775
4.01174116135 2.74038720131 -1.89763355255
4.00847816467 2.75508904457 -1.89982795715
4.01021623611 2.77328896523 -1.90442180634
3.99059844017 2.77671170235 -1.8988878727
3.98972034454 2.79315447807 -1.90228235722
3.9808242321 2.80401086807 -1.90187561512
3.9626288414 2.80826973915 -1.8970310688
3.95758485794 2.82181835175 -1.89849150181
3.96982383728 2.84779167175 -1.90828132629
3.94092845917 2.84425520897 -1.89831340313
3.94320416451 2.86317110062 -1.90336585045
3.93238258362 2.87261152267 -1.90211987495
3.92974853516 2.88804650307 -1.90485322475
3.91195988655 2.89232707024 -1.90025246143
3.90839719772 2.90710473061 -1.90257287025
3.90132141113 2.91929650307 -1.90320527554
3.88972020149 2.92809343338 -1.90164351463
3.88666701317 2.94333481789 -1.90427899361
3.85917949677 2.94001078606 -1.89494395256
3.86590147018 2.96273088455 -1.9024181366
3.86041116714 2.97617506981 -1.90391814709
3.84817314148 2.98441410065 -1.90210521221
3.82894301414 2.98716473579 -1.8968360424
3.81842660904 2.99665522575 -1.89588546753
3.82066822052 3.01619958878 -1.90129506588
3.82353448868 3.03634238243 -1.90705657005
3.80456876755 3.0391535759 -1.90194618702
3.79118895531 3.04635691643 -1.89962685108
3.78477787971 3.05914950371 -1.90081250668
3.76271414757 3.05923819542 -1.89413976669
3.76358366013 3.07795572281 -1.89902317524
3.7509663105 3.0856719017 -1.89712417126
3.74120426178 3.09571409225 -1.89667916298
3.7350320816 3.10873627663 -1.89807224274
3.72774004936 3.12084770203 -1.89891731739
3.7198574543 3.13247799873 -1.89948046207
3.71130847931 3.14355540276 -1.89972114563
3.70740818977 3.15859770775 -1.90236389637
3.69091033936 3.16289591789 -1.89855539799
3.67647361755 3.16889715195 -1.89580667019
3.67283773422 3.18420886993 -1.89864361286
3.67080283165 3.20097208023 -1.90233981609
3.64747262001 3.19913005829 -1.89500677586
3.65792369843 3.22694563866 -1.90524756908
3.63558006287 3.22586393356 -1.89843130112
3.63641881943 3.24533700943 -1.9037322998
3.61990785599 3.24934148788 -1.89997005463
3.61672759056 3.26530694962 -1.90321910381
3.59367918968 3.26329565048 -1.8960185051
3.59478926659 3.28320527077 -1.9015750885
3.57782363892 3.28662204742 -1.89758992195
3.56693840027 3.295576334 -1.89683270454
3.55880880356 3.30707669258 -1.89755666256
3.54616570473 3.31437349319 -1.89588701725
3.53470993042 3.32275247574 -1.89486062527
3.53776955605 3.34483456612 -1.90164661407
3.52419900894 3.35124087334 -1.89952206612
3.51857161522 3.3652009964 -1.90169453621
3.50995135307 3.37632656097 -1.90227270126
3.50967121124 3.39553308487 -1.90740251541
3.4783976078 3.38468647003 -1.89568543434
3.47712922096 3.40296435356 -1.90031695366
3.46070933342 3.40642380714 -1.89668631554
3.44595193863 3.41145443916 -1.89396464825
3.44773173332 3.43289446831 -1.90035808086
3.44319462776 3.4481420517 -1.90331232548
3.43561339378 3.46038508415 -1.90461170673
3.41568470001 3.46014761925 -1.89906942844
3.4030175209 3.46719241142 -1.89755964279
3.38920593262 3.47303247452 -1.89541661739
3.38234329224 3.48598957062 -1.89717435837
3.35766124725 3.48051285744 -1.8889336586
3.32556128502 3.46712684631 -1.87647354603
3.32597661018 3.48757100105 -1.88235652447
3.29967093468 3.47995972633 -1.87312173843
3.27739691734 3.47642707825 -1.86614215374
3.26298379898 3.48113059998 -1.86362481117
3.24093222618 3.47758436203 -1.856731534
3.22535181046 3.48087215424 -1.8535296917
3.19857311249 3.47193551064 -1.84386789799
3.18423986435 3.47637581825 -1.84135782719
3.17009758949 3.48097133636 -1.83895802498
3.14635872841 3.47491550446 -1.83097362518
3.13093757629 3.47792363167 -1.82780921459
3.10798978806 3.47245287895 -1.8202316761
3.09044861794 3.47289013863 -1.81579720974
3.07071280479 3.47074866295 -1.81005525589
3.06174564362 3.48072147369 -1.81065928936
3.03213143349 3.46709942818 -1.79903197289
3.02005076408 3.47338175774 -1.79778015614
3.00702095032 3.47853803635 -1.79596817493
2.98234772682 3.4701063633 -1.78718161583
2.96963310242 3.47547125816 -1.78554129601
2.95469903946 3.47818613052 -1.78256559372
2.92512464523 3.46349859238 -1.77072203159
2.92022013664 3.47792124748 -1.77379703522
2.90565371513 3.48084044456 -1.77101910114
2.88772702217 3.47964668274 -1.76618134975
2.86719322205 3.47518110275 -1.7597244978
2.85939693451 3.48609519005 -1.76108205318
2.83545732498 3.47724366188 -1.75248622894
2.81184315681 3.46859288216 -1.74404585361
2.80555129051 3.48123884201 -1.74634242058
2.78036379814 3.47035360336 -1.73686587811
2.76399946213 3.47032308578 -1.73286724091
2.74570441246 3.46775913239 -1.72763907909
2.73155879974 3.47034287453 -1.72500765324
2.72099876404 3.47744607925 -1.72464382648
2.70497345924 3.4775147438 -1.7208148241
2.69348526001 3.48335909843 -1.71986865997
2.67532682419 3.48050284386 -1.71465480328
2.65405464172 3.4734454155 -1.70741271973
2.63580489159 3.47019124031 -1.70208203793
