4.14614725113 1.5785433054 -0.544730126858
4.13061761856 1.5885078907 -0.54338657856
4.11821269989 1.59960758686 -0.542457163334
4.10826969147 1.61161863804 -0.541856169701
4.08649873734 1.61890888214 -0.53969758749
4.06119346619 1.62465834618 -0.537071943283
4.04204177856 1.63273894787 -0.535260140896
4.03456926346 1.64547646046 -0.534998238087
4.01827764511 1.65456712246 -0.53357052803
4.00368785858 1.66428089142 -0.532371163368
3.97439646721 1.66775476933 -0.529216825962
3.96288132668 1.678571105 -0.528429925442
3.95932221413 1.69274258614 -0.528709173203
3.93988823891 1.70008063316 -0.526872217655
3.90844106674 1.7020778656 -0.523427069187
3.90186500549 1.7148001194 -0.523313462734
3.87900424004 1.7202937603 -0.521018028259
3.86871647835 1.73127675056 -0.52041298151
3.84939837456 1.73814606667 -0.518595337868
3.82789564133 1.74391114712 -0.51648324728
3.83089709282 1.76081252098 -0.517681896687
3.81309509277 1.76813960075 -0.516074478626
3.78406620026 1.77011823654 -0.512945950031
3.78597354889 1.78650605679 -0.514013588428
3.75088381767 1.785348773 -0.510059356689
3.74628138542 1.79858922958 -0.510250687599
3.73201799393 1.80716311932 -0.509130358696
3.70703673363 1.81043481827 -0.506547629833
3.70034265518 1.82255649567 -0.5064650774
3.69414901733 1.83492195606 -0.506456553936
3.6679713726 1.837277174 -0.503709375858
3.65053272247 1.8438783884 -0.502160727978
3.63712835312 1.85243964195 -0.501168370247
3.63273620605 1.86556839943 -0.501422286034
3.62116193771 1.87499403954 -0.500689566135
3.60551333427 1.88224768639 -0.499395638704
3.58683133125 1.88782513142 -0.497681945562
3.56547021866 1.89187526703 -0.495595365763
3.5503783226 1.89915001392 -0.494379937649
3.5333237648 1.90529096127 -0.49289187789
3.5248529911 1.91600549221 -0.492603600025
3.52094221115 1.92920076847 -0.492958247662
3.49041819572 1.92772018909 -0.489586800337
3.49027514458 1.94294130802 -0.490477740765
3.47662591934 1.95064043999 -0.4894759655
3.45820856094 1.95558047295 -0.487803369761
3.43894815445 1.95993518829 -0.486010760069
3.42534732819 1.96742784977 -0.485018134117
3.41258835793 1.97534537315 -0.484146595001
3.40296125412 1.98503482342 -0.483722299337
3.38993120193 1.99269711971 -0.482817053795
3.37204933167 1.99742841721 -0.48122137785
3.35206031799 2.00080037117 -0.479323387146
3.34593629837 2.01239085197 -0.479409813881
3.34690690041 2.02828621864 -0.480520546436
3.32050657272 2.02753996849 -0.477703541517
3.31635379791 2.04030060768 -0.478087574244
3.29151105881 2.0402610302 -0.475489705801
3.28932499886 2.0542037487 -0.476166188717
3.2598721981 2.05103468895 -0.472895383835
3.25841140747 2.06539750099 -0.473685383797
3.24178671837 2.07012844086 -0.472274959087
3.22538495064 2.07491111755 -0.470896303654
3.21874427795 2.08593010902 -0.470945239067
3.20382428169 2.09154772758 -0.469785630703
3.18947601318 2.09746551514 -0.468710273504
3.18466567993 2.10963129997 -0.469040155411
3.17168068886 2.11636400223 -0.468170166016
3.15139698982 2.11813426018 -0.466221779585
3.14352464676 2.12817883492 -0.466110140085
3.13661575317 2.13887286186 -0.466146409512
3.1193048954 2.14242529869 -0.46463868022
3.11091375351 2.15204811096 -0.464460939169
3.09321165085 2.1551721096 -0.462894260883
3.07913851738 2.16073799133 -0.461869746447
3.07633519173 2.17420077324 -0.462540119886
3.06012105942 2.17816281319 -0.461197704077
3.04374647141 2.18192005157 -0.459829837084
3.03388500214 2.19028711319 -0.459446877241
3.0127222538 2.19041204453 -0.457351624966
3.01224160194 2.20553874969 -0.458398669958
2.99261784554 2.20662093163 -0.456535667181
2.98117995262 2.2136554718 -0.455920487642
2.96110081673 2.21418619156 -0.45398247242
2.95650839806 2.22624635696 -0.454420238733
2.94033336639 2.22955369949 -0.453080505133
2.92930650711 2.23670053482 -0.452534407377
2.93305706978 2.25517177582 -0.454279333353
2.90777921677 2.25128912926 -0.451530814171
2.89949440956 2.26046419144 -0.451418668032
2.89198184013 2.27023768425 -0.451431542635
2.86682271957 2.26606369019 -0.44868773222
2.85021495819 2.2685046196 -0.447276353836
2.85069203377 2.28453874588 -0.448550701141
2.84448170662 2.29526591301 -0.448781877756
2.82675123215 2.29664993286 -0.447196871042
2.81964159012 2.30661058426 -0.447293072939
2.80868935585 2.31341362 -0.446783602238
2.79817438126 2.32054305077 -0.446346104145
2.78329539299 2.32399749756 -0.445213139057
2.7741663456 2.33220529556 -0.445001155138
2.76875329018 2.34354352951 -0.445390760899
2.74992704391 2.34347939491 -0.443623781204
2.72043156624 2.33413386345 -0.4401255548
2.7224509716 2.35175943375 -0.441725432873
2.71420645714 2.36057496071 -0.441669434309
2.7080347538 2.37120127678 -0.441956341267
2.68873739243 2.3702776432 -0.440101504326
2.6799929142 2.37858486176 -0.439973056316
2.67748475075 2.39245533943 -0.440875738859
2.65370416641 2.38725566864 -0.438275486231
2.63931202888 2.39036774635 -0.43721973896
2.6389605999 2.40620398521 -0.438495486975
2.62333536148 2.40811443329 -0.437238305807
2.6125228405 2.41437911987 -0.436782926321
2.59585666656 2.41516375542 -0.435347884893
2.58182048798 2.4183049202 -0.434351295233
2.57532072067 2.42847824097 -0.434625178576
2.56650066376 2.43646907806 -0.434512853622
2.55793190002 2.44469237328 -0.434447437525
2.54476189613 2.4484834671 -0.433602452278
2.54084825516 2.46117663383 -0.434339225292
2.52723431587 2.46446681023 -0.433422058821
2.52105665207 2.47498726845 -0.43378329277
2.50933337212 2.48005485535 -0.433194428682
2.49570679665 2.48318362236 -0.432276934385
2.48753905296 2.49170923233 -0.432306796312
2.46655249596 2.4873111248 -0.430106461048
2.46090960503 2.49831867218 -0.430580705404
2.46259498596 2.5168530941 -0.432349652052
2.43456196785 2.50494909286 -0.428900122643
2.43125677109 2.51838755608 -0.429802954197
2.42981123924 2.53383708 -0.431046843529
2.41521501541 2.53557896614 -0.429963201284
2.3997604847 2.5363278389 -0.428723394871
2.3938434124 2.54712629318 -0.429189622402
2.37672066689 2.54595851898 -0.427647709846
2.3613960743 2.54660654068 -0.426424264908
2.35256648064 2.5542075634 -0.426373869181
2.33678007126 2.55420088768 -0.425062477589
2.33296132088 2.56725740433 -0.425931185484
2.32011651993 2.57038497925 -0.425157099962
2.31776976585 2.58515882492 -0.426313012838
2.29135227203 2.57299828529 -0.423038363457
2.29656219482 2.59632372856 -0.425604999065
2.28105711937 2.59628367424 -0.424342364073
2.2742857933 2.60614728928 -0.424705803394
2.26306080818 2.61090350151 -0.424241989851
2.25031423569 2.61385345459 -0.423492997885
2.23576998711 2.61463832855 -0.422403275967
2.23097896576 2.62681531906 -0.423159658909
2.22094011307 2.63283538818 -0.42292752862
2.20973825455 2.63744783401 -0.422475934029
2.19812989235 2.64153337479 -0.421947479248
2.18403530121 2.64256572723 -0.420940309763
2.17174720764 2.64571237564 -0.420279294252
2.1657102108 2.65646934509 -0.420832246542
2.15593481064 2.66265797615 -0.42066514492
2.14217400551 2.66387581825 -0.419720441103
2.1335310936 2.67141962051 -0.419779628515
2.1292784214 2.68450379372 -0.420711457729
2.11440730095 2.6841905117 -0.419548988342
2.11567211151 2.7044005394 -0.421596765518
2.10582351685 2.71048855782 -0.421442776918
2.08776307106 2.70591974258 -0.419641673565
2.07144522667 2.70346331596 -0.418181300163
2.06863045692 2.7186217308 -0.419450849295
2.04872322083 2.71127533913 -0.417255222797
2.0409681797 2.71992397308 -0.41753077507
2.0313205719 2.72605800629 -0.417424559593
2.01744437218 2.72646808624 -0.416449248791
2.01608896255 2.7438287735 -0.418066114187
1.99716639519 2.73726248741 -0.416043043137
1.9899995327 2.74673366547 -0.416466146708
1.98856627941 2.76421523094 -0.418103456497
1.96713066101 2.7538485527 -0.415535509586
1.95837664604 2.76111960411 -0.415639549494
1.95192885399 2.77167534828 -0.416241049767
1.94934225082 2.78781104088 -0.417680352926
1.93683373928 2.78979301453 -0.417002022266
1.92653203011 2.794911623 -0.416799277067
1.91126835346 2.79276013374 -0.415520489216
1.90419113636 2.80253362656 -0.416022360325
1.89934718609 2.81566667557 -0.417024254799
1.88231265545 2.81069540977 -0.415350884199
1.87468338013 2.8197054863 -0.415751188993
1.8653703928 2.82620477676 -0.415784955025
1.8594956398 2.8379547596 -0.416594028473
1.84639441967 2.8386759758 -0.415788829327
1.83395707607 2.84034490585 -0.415130287409
1.82716572285 2.85075592995 -0.41575422883
1.80776584148 2.84141302109 -0.413505375385
1.80542814732 2.8588578701 -0.415160804987
1.79555416107 2.86445069313 -0.415096402168
1.7829823494 2.86570072174 -0.414408951998
1.78393530846 2.88878083229 -0.4168792665
1.7679861784 2.88454294205 -0.4154099226
1.756098032 2.8868265152 -0.41488853097
1.74176895618 2.88501238823 -0.413786172867
1.7397094965 2.9035589695 -0.415607333183
1.72999870777 2.90943288803 -0.41561549902
1.72178554535 2.91784596443 -0.415990322828
1.69796550274 2.89964747429 -0.412581861019
1.69610822201 2.91887521744 -0.414506226778
1.67927229404 2.91233611107 -0.412775754929
1.67175006866 2.92188549042 -0.413332462311
1.66911435127 2.94010424614 -0.415115743876
1.65438914299 2.93705916405 -0.413900285959
1.64808225632 2.94894146919 -0.414793729782
1.63078975677 2.94111180305 -0.41292104125
1.61975383759 2.94444394112 -0.41262409091
1.61270010471 2.95503926277 -0.413348793983
1.60811173916 2.97027158737 -0.414722949266
1.59073853493 2.96185803413 -0.412801235914
1.58602833748 2.97699022293 -0.414166778326
1.57923197746 2.98833465576 -0.415006071329
1.56434714794 2.98434782028 -0.413721650839
1.5555690527 2.99195432663 -0.41405081749
1.54576671124 2.9976143837 -0.414114534855
1.52967476845 2.99098443985 -0.412487775087
1.53139305115 3.01927232742 -0.415678530931
1.50771677494 2.99746203423 -0.411977529526
1.5123193264 3.03189253807 -0.416010469198
1.48998510838 3.01236081123 -0.412642717361
1.48662126064 3.03109097481 -0.414523333311
1.47654676437 3.03625679016 -0.414550423622
1.46166443825 3.03145503998 -0.413223385811
1.46072638035 3.05565500259 -0.415852218866
1.44784486294 3.05498981476 -0.415098667145
1.43200564384 3.0479323864 -0.413485080004
1.42890179157 3.06801152229 -0.41555672884
1.41283047199 3.06027197838 -0.41386449337
1.4062846899 3.07312679291 -0.414962977171
1.39492750168 3.07551908493 -0.414652138948
1.38620352745 3.08372807503 -0.415129959583
1.37615215778 3.08902168274 -0.41521909833
1.36662733555 3.09552049637 -0.415474414825
1.35560142994 3.09862351418 -0.41527852416
1.35088777542 3.11626124382 -0.417032957077
1.33718538284 3.11321425438 -0.416022896767
1.32604825497 3.11605477333 -0.415806025267
1.31247496605 3.11308693886 -0.414820432663
1.30102694035 3.11506819725 -0.414500892162
1.29928421974 3.14046263695 -0.417297929525
1.28734338284 3.14137506485 -0.416843295097
1.28011918068 3.15384197235 -0.417925715446
1.26578295231 3.14877581596 -0.416689634323
1.25544929504 3.15358138084 -0.416766196489
1.24524521828 3.15872788429 -0.416892230511
1.23692333698 3.16871476173 -0.417660623789
1.22794640064 3.17712402344 -0.418224006891
1.21633839607 3.17874360085 -0.417898029089
1.20947921276 3.19284963608 -0.419217020273
1.19014811516 3.17390060425 -0.416202783585
1.18814122677 3.2011551857 -0.4192520082
1.17688965797 3.20372700691 -0.419069707394
1.16760909557 3.21169137955 -0.419597059488
1.15628349781 3.21405720711 -0.419397264719
1.14277076721 3.21024656296 -0.418397724628
1.1359180212 3.22518157959 -0.419845491648
1.1272701025 3.23520493507 -0.420655936003
1.11420714855 3.23255586624 -0.419823378325
1.10216426849 3.23275828362 -0.419367402792
1.0938501358 3.24394106865 -0.420339941978
1.07921254635 3.23632955551 -0.4188824296
1.07289087772 3.25368332863 -0.420660614967
1.06575131416 3.26884222031 -0.422156095505
1.05313980579 3.26729130745 -0.421497434378
1.03675377369 3.25377631187 -0.419303148985
1.03424084187 3.28391265869 -0.42273747921
1.02299296856 3.28661751747 -0.422641783953
1.0162204504 3.3038547039 -0.424417823553
0.996575057507 3.27907013893 -0.420802354813
0.989563345909 3.29567456245 -0.4225050807
0.975323617458 3.28823781013 -0.421130090952
0.967358589172 3.30195236206 -0.422468781471
0.957197546959 3.30834054947 -0.422873109579
0.94813233614 3.31864523888 -0.42378154397
0.938650548458 3.32765603065 -0.424527913332
0.931372642517 3.34473395348 -0.426305860281
0.918868362904 3.3431634903 -0.425710648298
0.908026576042 3.34759831429 -0.425885289907
0.895755648613 3.34673094749 -0.425390481949
0.886789739132 3.35827422142 -0.426477402449
0.875469982624 3.36101722717 -0.426450550556
0.864867389202 3.36654615402 -0.426781773567
0.85646122694 3.3808195591 -0.428224772215
0.841724693775 3.37007331848 -0.426503777504
0.833680689335 3.38611721992 -0.428178071976
0.820598483086 3.38178658485 -0.427280157804
0.811911940575 3.39562916756 -0.428682774305
0.800723135471 3.39918446541 -0.428790271282
0.793981194496 3.42193078995 -0.431321382523
0.780696332455 3.41666412354 -0.430325180292
0.76867890358 3.41678404808 -0.430013269186
0.760042607784 3.43209338188 -0.431616872549
0.748675584793 3.4352850914 -0.431700140238
0.736481904984 3.43464398384 -0.431306838989
0.727158546448 3.44750761986 -0.432613611221
0.71283853054 3.43663430214 -0.430946826935
0.703534066677 3.44990062714 -0.43231216073
0.693039178848 3.45760798454 -0.432984381914
0.681894719601 3.46220779419 -0.433271676302
0.674329698086 3.48539185524 -0.435887604952
0.659430921078 3.4707429409 -0.433776646852
0.649787545204 3.48364114761 -0.435113936663
0.639312028885 3.49239969254 -0.435937732458
0.62721580267 3.49238944054 -0.43567147851
0.617447853088 3.50551486015 -0.43704816699
0.607326328754 3.5170352459 -0.438228130341
0.594935715199 3.51553440094 -0.437790125608
0.582779228687 3.5153002739 -0.437515169382
0.572481393814 3.52642226219 -0.438658058643
0.560688257217 3.52853298187 -0.438684314489
0.550593733788 3.54157948494 -0.440074324608
0.538464188576 3.54174661636 -0.439868301153
0.52894037962 3.55937314034 -0.441834658384
0.517627239227 3.56542301178 -0.442367732525
0.503221392632 3.54986429214 -0.440225541592
0.493886947632 3.57011175156 -0.442528635263
0.482065856457 3.57287120819 -0.442667841911
0.47340247035 3.59970092773 -0.445792794228
0.457908272743 3.57455134392 -0.442485630512
0.449235230684 3.60264587402 -0.445774435997
0.43726053834 3.60501265526 -0.445883363485
0.424787551165 3.60320472717 -0.445481091738
0.413219124079 3.60910511017 -0.446036815643
0.400985330343 3.60929274559 -0.445891320705
0.391562581062 3.63550686836 -0.448965102434
0.380400598049 3.64666748047 -0.450183331966
0.367810934782 3.64434599876 -0.449741959572
0.355071097612 3.64023828506 -0.449085593224
0.345181792974 3.66602396965 -0.452121376991
0.331434458494 3.65114402771 -0.450146704912
0.319878816605 3.66010475159 -0.451116710901
0.30706101656 3.65467786789 -0.450318396091
0.296701788902 3.67919683456 -0.453214436769
0.28500443697 3.6884534359 -0.454234451056
0.273031443357 3.69473767281 -0.454893022776
0.260249525309 3.69006514549 -0.454207777977
0.24839964509 3.69871449471 -0.455167353153
0.235578939319 3.6929705143 -0.454360753298
0.224775493145 3.71988272667 -0.457576572895
0.212045609951 3.7161192894 -0.457023620605
0.199787378311 3.72057890892 -0.457487106323
0.187923118472 3.7333714962 -0.458980053663
0.175397887826 3.73383378983 -0.458962023258
0.16342702508 3.74698734283 -0.460508912802
0.150838658214 3.74690532684 -0.46043407917
0.139699965715 3.78600406647 -0.465178519487
0.126539200544 3.77255177498 -0.463470935822
0.113717287779 3.76723861694 -0.462768733501
0.101770542562 3.79311943054 -0.465903431177
0.0891881361604 3.79922318459 -0.466613769531
0.0768512934446 3.81946706772 -0.46906581521
0.0638311877847 3.80695700645 -0.467500537634
0.0510921627283 3.80903840065 -0.467732489109
0.0385079681873 3.82778453827 -0.47001594305
0.0256261900067 3.82077717781 -0.46914228797
0.0128718139604 3.83757066727 -0.471196383238
5.08957100465e-06 3.83598923683 -0.470999538898
-0.0128571679816 3.83623933792 -0.471032887697
-0.0258094109595 3.84961771965 -0.472683519125
-0.0387982837856 3.857660532 -0.47368440032
-0.0519244335592 3.87185239792 -0.475445747375
-2.92263507843 -1.99296987057 -0.30948844552
-2.91728639603 -2.00368475914 -0.309631705284
-2.90430307388 -2.00913167 -0.308966934681
-2.88723111153 -2.01166796684 -0.307866543531
-2.88338375092 -2.02338147163 -0.3081779778
-2.87170958519 -2.02959299088 -0.30765581131
-2.85120177269 -2.0294675827 -0.306185990572
-2.8370923996 -2.0337908268 -0.30540138483
-2.82587242126 -2.04012584686 -0.304928213358
-2.8225748539 -2.05217599869 -0.305313110352
-2.81299614906 -2.059664011 -0.305022269487
-2.79555106163 -2.06132435799 -0.303878337145
-2.79800319672 -2.07765007019 -0.304900377989
-2.77002096176 -2.07131624222 -0.302606225014
-2.76568937302 -2.0825715065 -0.302894115448
-2.75615906715 -2.08991241455 -0.302616089582
-2.73568367958 -2.08886957169 -0.301135241985
-2.72914767265 -2.09840130806 -0.301188528538
-2.71967434883 -2.10566425323 -0.30092048645
-2.71066236496 -2.11326098442 -0.300705641508
-2.69248819351 -2.11364459991 -0.299473971128
-2.67857503891 -2.11727595329 -0.298714369535
-2.67721843719 -2.13082718849 -0.299358129501
-2.66666650772 -2.13707256317 -0.298977762461
-2.66172528267 -2.14780807495 -0.299229472876
-2.65904307365 -2.1604039669 -0.299740552902
-2.63102912903 -2.15232777596 -0.297394484282
-2.62521338463 -2.16230297089 -0.297554910183
-2.60182905197 -2.15772438049 -0.29572275281
-2.60654234886 -2.17642378807 -0.297086179256
-2.59606957436 -2.18249344826 -0.2967248559
-2.57962870598 -2.18347549438 -0.295680820942
-2.57226610184 -2.19208884239 -0.295677661896
-2.56766796112 -2.20307421684 -0.295996546745
-2.55187249184 -2.20441913605 -0.295026034117
-2.53914403915 -2.20833301544 -0.29440882802
-2.52074718475 -2.20722079277 -0.293132156134
-2.51101398468 -2.21361613274 -0.292861759663
-2.49610185623 -2.21538710594 -0.291987210512
-2.49043321609 -2.22532820702 -0.292195230722
-2.48732590675 -2.23759484291 -0.292709231377
-2.47878241539 -2.24499154091 -0.292587995529
-2.46009111404 -2.24312281609 -0.291267812252
-2.45207047462 -2.25091218948 -0.291210085154
-2.45018410683 -2.26436471939 -0.29188606143
-2.43083548546 -2.26164150238 -0.290482789278
-2.42104578018 -2.26772475243 -0.29021987319
-2.40599179268 -2.26881599426 -0.2893255651
-2.40589523315 -2.28401303291 -0.290233194828
-2.39684319496 -2.29074716568 -0.290066093206
-2.37933182716 -2.2893242836 -0.288874179125
-2.36000299454 -2.28601408005 -0.287456423044
-2.36059808731 -2.30198144913 -0.288467377424
-2.34952878952 -2.30660605431 -0.288058131933
-2.34870910645 -2.32131695747 -0.288910210133
-2.32918643951 -2.3175110817 -0.287462979555
-2.32182264328 -2.32572746277 -0.287514895201
-2.31258368492 -2.33205890656 -0.287337452173
-2.30051875114 -2.33550214767 -0.286809742451
-2.29400992393 -2.3445661068 -0.286976665258
-2.27896380424 -2.34486460686 -0.286076366901
-2.27161407471 -2.35303616524 -0.286142468452
-2.24961972237 -2.34594345093 -0.284361153841
-2.24180150032 -2.35353589058 -0.284368753433
-2.23932361603 -2.36677336693 -0.285059422255
-2.22838449478 -2.37108516693 -0.284677296877
-2.21181201935 -2.36932015419 -0.283573418856
-2.21010756493 -2.38346457481 -0.284377813339
-2.20966815948 -2.39907407761 -0.285354673862
-2.18458271027 -2.38785529137 -0.283147484064
-2.1807346344 -2.39975547791 -0.283689975739
-2.17157840729 -2.40583705902 -0.283546596766
-2.16724514961 -2.41728186607 -0.284037470818
-2.14879179001 -2.41292762756 -0.282677680254
-2.14357566833 -2.42338132858 -0.283058792353
-2.13097667694 -2.42547631264 -0.282467365265
-2.11712527275 -2.42606711388 -0.281707912683
-2.11165738106 -2.43624186516 -0.282065689564
-2.10449552536 -2.44449067116 -0.282202214003
-2.09307527542 -2.4477763176 -0.281769752502
-2.07900094986 -2.44788527489 -0.280978351831
-2.07876253128 -2.46430277824 -0.282061219215
-2.05337142944 -2.45082855225 -0.279729366302
-2.05412554741 -2.46849417686 -0.280958026648
-2.04345965385 -2.47249007225 -0.280631452799
-2.03159165382 -2.47498250008 -0.280139625072
-2.02614665031 -2.48529362679 -0.280536234379
-2.00742483139 -2.47925615311 -0.279093444347
-2.01326942444 -2.50359177589 -0.281071484089
-1.99962222576 -2.50376439095 -0.280336588621
-1.98582410812 -2.50365638733 -0.279577434063
-1.97686564922 -2.50959825516 -0.279499262571
-1.96856558323 -2.51637220383 -0.279517024755
-1.94697296619 -2.50603938103 -0.277642577887
-1.95115041733 -2.52887177467 -0.279445827007
-1.93995440006 -2.53186750412 -0.279056549072
-1.92700982094 -2.53251600266 -0.278414368629
-1.92234706879 -2.54404354095 -0.278971493244
-1.91343605518 -2.54998064041 -0.278917491436
-1.90035510063 -2.55031514168 -0.278255581856
-1.89465987682 -2.56054568291 -0.278677135706
-1.87962067127 -2.55811429024 -0.277725100517
-1.87541532516 -2.57040786743 -0.278375536203
-1.87260901928 -2.58471775055 -0.279243767262
-1.85602295399 -2.57998728752 -0.278058797121
-1.84184920788 -2.57847762108 -0.277228981256
-1.82674491405 -2.57554626465 -0.276253759861
-1.82819890976 -2.59599757195 -0.277788341045
-1.81644296646 -2.59776234627 -0.277323961258
-1.80919599533 -2.60595989227 -0.277549922466
-1.79684913158 -2.60678911209 -0.276995062828
-1.78836119175 -2.61318230629 -0.277035683393
-1.77799749374 -2.61682033539 -0.276787847281
-1.76639604568 -2.61858963966 -0.276347011328
-1.75622916222 -2.62244081497 -0.276130437851
-1.75217211246 -2.63545179367 -0.276880323887
-1.73745179176 -2.63241147995 -0.275947332382
-1.72922945023 -2.6391582489 -0.276045262814
-1.71787762642 -2.64110779762 -0.275645166636
-1.71347641945 -2.65376543999 -0.276365071535
-1.7102534771 -2.66836428642 -0.277286678553
-1.69156527519 -2.65878677368 -0.275700509548
-1.68073689938 -2.66142773628 -0.275388479233
-1.67953038216 -2.67937350273 -0.276661157608
-1.67085313797 -2.6854968071 -0.276713430882
-1.65822219849 -2.68522572517 -0.276111066341
-1.64183795452 -2.67874288559 -0.274876862764
-1.64089882374 -2.69746828079 -0.276232272387
-1.62775325775 -2.69617629051 -0.275539547205
-1.62373387814 -2.71001315117 -0.27639567852
-1.60348653793 -2.69668674469 -0.274486660957
-1.60117614269 -2.71346998215 -0.275646984577
-1.5861697197 -2.70874810219 -0.27462553978
-1.57431936264 -2.70930218697 -0.274145007133
-1.57412993908 -2.73000597954 -0.27570438385
-1.56467413902 -2.73475527763 -0.275652617216
-1.55067241192 -2.73148870468 -0.274797767401
-1.54700469971 -2.74643516541 -0.275778084993
-1.54463648796 -2.76386141777 -0.277006328106
-1.52748894691 -2.75482726097 -0.275586038828
-1.51981306076 -2.76278543472 -0.275870859623
-1.51227843761 -2.77104854584 -0.276188075542
-1.49709022045 -2.76522612572 -0.275105953217
-1.48532629013 -2.765604496 -0.274646610022
-1.48194265366 -2.78163814545 -0.275743871927
-1.47657966614 -2.79410672188 -0.276487588882
-1.45806741714 -2.78161287308 -0.274765968323
-1.45021176338 -2.78933024406 -0.275046437979
-1.44292593002 -2.79819965363 -0.275442421436
-1.43339014053 -2.80273652077 -0.275414407253
-1.42716276646 -2.81379199028 -0.276029020548
-1.41652572155 -2.8161854744 -0.275796353817
-1.40651977062 -2.81980466843 -0.275687426329
-1.39753711224 -2.82547402382 -0.275782048702
-1.39059627056 -2.83532333374 -0.276286751032
-1.37905275822 -2.83579683304 -0.275880783796
-1.36872422695 -2.83871841431 -0.275717020035
-1.3592826128 -2.84346675873 -0.275734007359
-1.35397326946 -2.85693788528 -0.276598542929
-1.3396384716 -2.851354599 -0.275621563196
-1.33287608624 -2.86185336113 -0.276202887297
-1.32526135445 -2.87061214447 -0.276617825031
-1.31461048126 -2.87281322479 -0.27640363574
-1.30159175396 -2.86975383759 -0.275687843561
-1.29485845566 -2.8805437088 -0.276305764914
-1.28747498989 -2.88999056816 -0.27679631114
-1.27833473682 -2.89555168152 -0.276916891336
-1.26735663414 -2.89693522453 -0.276641279459
-1.25957810879 -2.90564656258 -0.277068316936
-1.2480905056 -2.90580630302 -0.276682943106
-1.2395927906 -2.91291618347 -0.276962667704
-1.23158299923 -2.92123913765 -0.277359843254
-1.21839368343 -2.91724014282 -0.27659073472
-1.21514558792 -2.93711590767 -0.278087347746
-1.20602297783 -2.94295930862 -0.278256207705
-1.19419395924 -2.94216966629 -0.277801394463
-1.18839871883 -2.95629644394 -0.278757452965
-1.17568802834 -2.95325064659 -0.278097033501
-1.16889214516 -2.96507120132 -0.278839498758
-1.15832805634 -2.96739506721 -0.278691232204
-1.14272999763 -2.9566628933 -0.277321904898
-1.13530516624 -2.96699738503 -0.27793264389
-1.12857151031 -2.97928905487 -0.278728038073
-1.11392343044 -2.97064781189 -0.277568638325
-1.10618460178 -2.9803674221 -0.278128713369
-1.10009932518 -2.99471306801 -0.279121667147
-1.08502650261 -2.98456001282 -0.277834713459
-1.07702052593 -2.99375915527 -0.278353363276
-1.07006490231 -3.00602817535 -0.279158949852
-1.05961167812 -3.00855255127 -0.279061883688
-1.05014061928 -3.0138733387 -0.279227256775
-1.04427087307 -3.02968168259 -0.280365914106
-1.0315977335 -3.02580571175 -0.279685586691
-1.02344512939 -3.03517317772 -0.280232697725
-1.01404035091 -3.04091882706 -0.280447721481
-0.998969316483 -3.02953338623 -0.279087215662
-0.995745897293 -3.0541510582 -0.281045913696
-0.984793901443 -3.05528092384 -0.280844479799
-0.974060177803 -3.05704522133 -0.280704885721
-0.963912010193 -3.06063365936 -0.280736029148
-0.955506443977 -3.06982922554 -0.281284064054
-0.94706761837 -3.07905983925 -0.281837284565
-0.936610758305 -3.0817964077 -0.281798779964
-0.923423349857 -3.07542920113 -0.280931890011
-0.909867107868 -3.06758546829 -0.279935121536
-0.906973838806 -3.09586763382 -0.282236933708
-0.899816811085 -3.11004757881 -0.28325304389
-0.888312578201 -3.10929560661 -0.282911717892
-0.875890731812 -3.10519480705 -0.282269775867
-0.866722524166 -3.11259531975 -0.282676756382
-0.859311819077 -3.12650847435 -0.283677041531
-0.847852647305 -3.1257891655 -0.283352285624
-0.837560355663 -3.12933444977 -0.283417493105
-0.829457342625 -3.14119029045 -0.284237772226
-0.819562137127 -3.14641547203 -0.284460365772
-0.806262493134 -3.1384575367 -0.283494919538
-0.799466252327 -3.15587115288 -0.284824132919
-0.788442969322 -3.15678119659 -0.284666091204
-0.776982665062 -3.15586590767 -0.28434702754
-0.768276274204 -3.16619706154 -0.285044193268
-0.759119331837 -3.17487406731 -0.28559461236
-0.744893372059 -3.16221642494 -0.284229755402
-0.740912497044 -3.19325184822 -0.286794424057
-0.730427265167 -3.19670414925 -0.286882907152
-0.716707885265 -3.18581175804 -0.285688132048
-0.709752380848 -3.20504021645 -0.287197440863
-0.696832835674 -3.19744634628 -0.286305993795
-0.686340689659 -3.20084786415 -0.286402910948
-0.678595304489 -3.21730852127 -0.287670552731
-0.670406579971 -3.23211073875 -0.28879147768
-0.659208714962 -3.23258757591 -0.288634985685
-0.64626711607 -3.22430419922 -0.287700265646
-0.637948572636 -3.23912358284 -0.288830131292
-0.627725839615 -3.24455785751 -0.2891253829
-0.615570008755 -3.2399392128 -0.288528263569
-0.606063067913 -3.24927306175 -0.289176911116
-0.596323370934 -3.25761246681 -0.289739519358
-0.589703977108 -3.28357052803 -0.291870802641
-0.575370073318 -3.26667189598 -0.290195584297
-0.56904810667 -3.29541754723 -0.292578101158
-0.555560231209 -3.28291344643 -0.291300922632
-0.543569684029 -3.2788438797 -0.290776461363
-0.532928586006 -3.28283643723 -0.290970444679
-0.522747755051 -3.28982138634 -0.291432589293
-0.512201726437 -3.29468846321 -0.291709959507
-0.505480587482 -3.3248565197 -0.29422929883
-0.491946220398 -3.3104903698 -0.292810380459
-0.482083797455 -3.32066106796 -0.293565362692
-0.470433235168 -3.31863069534 -0.293244749308
-0.461388736963 -3.33526039124 -0.294575870037
-0.451070666313 -3.34321475029 -0.295143187046
-0.439085513353 -3.33882689476 -0.294624209404
-0.428796082735 -3.34736466408 -0.295249044895
-0.418440848589 -3.35576272011 -0.295864373446
-0.40748667717 -3.35961532593 -0.296081930399
-0.397719413042 -3.37367963791 -0.2972022295
-0.38543176651 -3.36648583412 -0.296452999115
-0.37561365962 -3.38100266457 -0.29761877656
-0.365061581135 -3.38953971863 -0.298260837793
-0.35398966074 -3.39356899261 -0.298509269953
-0.342429071665 -3.39294743538 -0.298351943493
-0.332101166248 -3.40484070778 -0.299298167229
-0.321283936501 -3.41231203079 -0.299858540297
-0.309144169092 -3.40569043159 -0.299183905125
-0.298582822084 -3.41653704643 -0.30004709959
-0.287640661001 -3.42364311218 -0.300584793091
-0.276611238718 -3.4301815033 -0.301075726748
-0.265716016293 -3.43894672394 -0.301765173674
-0.254548192024 -3.4447414875 -0.30219706893
-0.243891403079 -3.45825505257 -0.30330914259
-0.232809826732 -3.46671700478 -0.303981125355
-0.220775008202 -3.46104645729 -0.303417295218
-0.210254460573 -3.47972297668 -0.304991096258
-0.197975844145 -3.46970748901 -0.304053366184
-0.185553610325 -3.45567893982 -0.302767813206
-0.175518006086 -3.48710989952 -0.305468320847
-0.164403557777 -3.49998688698 -0.306546360254
-0.153194025159 -3.51258349419 -0.307602912188
-0.141513720155 -3.51550149918 -0.307815164328
-0.129256397486 -3.50322580338 -0.306700646877
-0.118069030344 -3.52030682564 -0.308159649372
-0.106357775629 -3.52374196053 -0.308427423239
-0.0947569161654 -3.53206205368 -0.309126108885
-0.0830046907067 -3.53622174263 -0.309464067221
-0.071652457118 -3.56155753136 -0.311658501625
-0.0594752281904 -3.5477244854 -0.310428828001
-0.0479245521128 -3.57359313965 -0.312676519156
-0.0359332859516 -3.57279753685 -0.312594622374
-0.0239473134279 -3.5718755722 -0.312505185604
-0.0120336841792 -3.59053325653 -0.314132243395
4.75733395433e-06 -3.58558344841 -0.313697427511
0.0120814563707 -3.60193538666 -0.315129816532
0.0240709837526 -3.58890104294 -0.313994735479
0.0362220332026 -3.60055708885 -0.315023392439
0.0485426448286 -3.6189661026 -0.316646516323
0.0606240145862 -3.61567783356 -0.31637480855
0.0727597028017 -3.61611747742 -0.316432863474
0.0856128409505 -3.6469233036 -0.319151878357
0.0974600017071 -3.63246011734 -0.317912966013
0.109885163605 -3.64028739929 -0.318628489971
0.122171089053 -3.64232373238 -0.318840771914
0.134951338172 -3.65731167793 -0.320190578699
0.147997066379 -3.67631912231 -0.321896284819
0.159905254841 -3.66624164581 -0.321059048176
0.172960057855 -3.68193769455 -0.322482556105
0.185359582305 -3.68244290352 -0.322579413652
0.198245510459 -3.69186520576 -0.323461204767
0.210774451494 -3.69384217262 -0.323694527149
0.2237046808 -3.70216155052 -0.324487447739
0.237275004387 -3.71955823898 -0.326080143452
0.249963000417 -3.72199320793 -0.326365232468
0.262478083372 -3.72166395187 -0.326411694288
0.276062250137 -3.73575139046 -0.327726572752
0.288855463266 -3.73829245567 -0.328032642603
0.301593154669 -3.73985147476 -0.328256309032
0.314426362514 -3.74234080315 -0.328565508127
0.329519450665 -3.77041435242 -0.331125408411
0.343146771193 -3.78016901016 -0.332081258297
0.354810237885 -3.76828336716 -0.33113977313
0.369497865438 -3.7881436348 -0.332991987467
0.38429749012 -3.80769824982 -0.334822297096
0.396974623203 -3.80555224419 -0.334748744965
0.411126971245 -3.81715464592 -0.335888683796
0.424769043922 -3.82337141037 -0.336559146643
0.43659311533 -3.81325626373 -0.335795730352
0.451498448849 -3.82977628708 -0.337381869555
0.464245200157 -3.82748866081 -0.33731558919
0.47831299901 -3.83583545685 -0.338190615177
0.494591742754 -3.860912323 -0.340545833111
0.507901489735 -3.86202764511 -0.340792506933
0.521305859089 -3.86370205879 -0.341092556715
0.537437856197 -3.88492369652 -0.343123197556
0.550614893436 -3.88419103622 -0.343219608068
0.563245713711 -3.87964320183 -0.342982679605
0.579889655113 -3.90222358704 -0.345148891211
0.594266653061 -3.90878725052 -0.34590369463
0.608792424202 -3.91593050957 -0.346714526415
0.623314619064 -3.92265415192 -0.347492933273
0.639505088329 -3.93928098679 -0.3491538167
0.655609428883 -3.95460915565 -0.350705265999
0.66964840889 -3.95701885223 -0.351116091013
0.684131383896 -3.96181416512 -0.351743161678
0.699992597103 -3.9741563797 -0.35304531455
0.713436365128 -3.97247266769 -0.3531062603
0.728509068489 -3.97966051102 -0.353960305452
0.744815707207 -3.99310588837 -0.355376303196
0.759866833687 -3.99936079979 -0.356157690287
0.77507185936 -4.00609540939 -0.3569868505
0.793024122715 -4.02644872665 -0.359035462141
0.805997669697 -4.02116346359 -0.358803123236
0.82338654995 -4.03761816025 -0.360515654087
0.837390959263 -4.03710842133 -0.360718846321
0.854667901993 -4.05203819275 -0.362306803465
0.8695358634 -4.05515193939 -0.362843871117
0.8893404603 -4.08072328568 -0.365396678448
0.904470920563 -4.08428287506 -0.365984857082
0.917348623276 -4.07762241364 -0.365661591291
0.934852421284 -4.09131813049 -0.367168754339
0.953577041626 -4.10976362228 -0.369108974934
0.971753001213 -4.12523031235 -0.370788663626
0.98546642065 -4.1214799881 -0.370746433735
1.00306332111 -4.13374614716 -0.372150272131
1.01962888241 -4.1413731575 -0.37314260006
1.03399550915 -4.13988161087 -0.373318463564
1.05497729778 -4.16444778442 -0.375850588083
1.07055914402 -4.1672129631 -0.37642198801
1.08628773689 -4.17036724091 -0.377033829689
1.10991609097 -4.20325422287 -0.380341351032
1.12448787689 -4.2013220787 -0.380505532026
1.14188873768 -4.20977163315 -0.381615370512
1.15951645374 -4.21872472763 -0.382777243853
1.18140184879 -4.24263572693 -0.385303974152
1.1968626976 -4.24305677414 -0.385704487562
1.21323382854 -4.24655151367 -0.386389762163
1.23666393757 -4.27425432205 -0.389285504818
1.25140702724 -4.27151489258 -0.389415949583
1.26552379131 -4.26662826538 -0.389355123043
1.2873083353 -4.28729438782 -0.391632676125
1.30855619907 -4.3055934906 -0.393702834845
1.32563376427 -4.30979442596 -0.394491165876
1.34301066399 -4.31475305557 -0.395354986191
1.36430287361 -4.33192300797 -0.397345125675
1.38704764843 -4.35314846039 -0.399716377258
1.40744364262 -4.36649417877 -0.401372820139
1.4207419157 -4.3576593399 -0.4009963274
1.44403409958 -4.37922430038 -0.403424024582
1.45971810818 -4.37738513947 -0.403703182936
1.48112571239 -4.39245223999 -0.405548483133
1.49699866772 -4.39084720612 -0.405861407518
1.52147424221 -4.41412591934 -0.408482372761
1.54143917561 -4.42384815216 -0.409858047962
1.5622061491 -4.43552970886 -0.411423265934
1.58695971966 -4.45805215836 -0.414003580809
1.60407340527 -4.45875406265 -0.414565861225
1.62396085262 -4.4669585228 -0.415832608938
1.64656341076 -4.48227214813 -0.417769730091
1.66762089729 -4.49299573898 -0.419287979603
1.68940806389 -4.50533294678 -0.42096555233
1.71291875839 -4.52185678482 -0.423043757677
1.73134410381 -4.52464485168 -0.423845261335
1.75212836266 -4.5333647728 -0.425210028887
1.77814567089 -4.55520296097 -0.427815139294
1.79911124706 -4.56368160248 -0.429175525904
1.82376468182 -4.58114099503 -0.431390076876
1.84447395802 -4.58833408356 -0.432647317648
1.86519908905 -4.59530878067 -0.433892250061
1.89014828205 -4.61233949661 -0.436096221209
1.90909802914 -4.61442613602 -0.436896264553
1.94032001495 -4.64573764801 -0.440474301577
1.95681965351 -4.64142179489 -0.44068467617
1.98831880093 -4.672311306 -0.444247990847
2.01327085495 -4.68726587296 -0.446309179068
2.03667163849 -4.69824409485 -0.448002189398
2.05281877518 -4.69231748581 -0.448090851307
2.08267116547 -4.71741724014 -0.451152056456
2.10532999039 -4.72579336166 -0.452625602484
2.13430094719 -4.74793481827 -0.455429077148
2.16283583641 -4.76859426498 -0.458103775978
2.19083762169 -4.78759527206 -0.460632234812
2.21455264091 -4.79684829712 -0.462234258652
2.23495912552 -4.79870653152 -0.463132798672
2.26260471344 -4.81580972672 -0.465513050556
2.29067826271 -4.83338928223 -0.467952132225
2.32335281372 -4.86016082764 -0.471295565367
2.34308290482 -4.85949468613 -0.47199010849
2.36870765686 -4.87082767487 -0.473859548569
2.39640641212 -4.88606309891 -0.476120740175
2.42632937431 -4.90540456772 -0.478795468807
2.45240926743 -4.91658163071 -0.480686306953
2.48172163963 -4.93386173248 -0.483186542988
2.51278972626 -4.95417976379 -0.485998690128
2.54306340218 -4.97247076035 -0.488626658916
2.5686583519 -4.98124790192 -0.490332722664
2.60159397125 -5.00386095047 -0.493414521217
2.63387227058 -5.02471017838 -0.496338397264
2.66623067856 -5.04523086548 -0.499245643616
2.69222211838 -5.05332660675 -0.500937104225
2.72413539886 -5.07217407227 -0.503708064556
2.75639057159 -5.09120607376 -0.506513059139
2.77474689484 -5.08432149887 -0.506750822067
2.8102209568 -5.10851621628 -0.510098516941
2.85115909576 -5.14203453064 -0.514397084713
2.87358808517 -5.1417593956 -0.51533049345
2.91401863098 -5.17329645157 -0.519467532635
2.95300269127 -5.20164251328 -0.523305118084
2.98272681236 -5.21321153641 -0.525472164154
3.01590514183 -5.23043823242 -0.528224766254
3.05251646042 -5.25315189362 -0.531549274921
3.08515739441 -5.26858091354 -0.534154176712
3.11715197563 -5.2825217247 -0.536624133587
3.15707468987 -5.30942440033 -0.540429234505
3.19220709801 -5.32776403427 -0.54338234663
3.22522830963 -5.34216833115 -0.54595130682
3.25961136818 -5.35843229294 -0.548727214336
3.30908703804 -5.39891290665 -0.554005682468
3.32841157913 -5.38979816437 -0.554212391376
3.37575316429 -5.42568397522 -0.559063017368
3.4052271843 -5.43236494064 -0.560924708843
3.44976830482 -5.46263647079 -0.565241575241
3.49571967125 -5.49450778961 -0.569748997688
3.52587151527 -5.5010881424 -0.571653962135
3.57036423683 -5.52960920334 -0.575858533382
3.61062860489 -5.55103778839 -0.579347550869
3.6441013813 -5.56161308289 -0.581723213196
3.7107694149 -5.62215089798 -0.589353263378
3.74425339699 -5.63172006607 -0.591669023037
3.79398083687 -5.66522455215 -0.596522092819
3.83671879768 -5.68770217896 -0.600239992142
3.87699747086 -5.70605325699 -0.60354501009
3.92169618607 -5.73041343689 -0.607509016991
3.96925997734 -5.7583937645 -0.611882865429
4.01146364212 -5.77806615829 -0.61539888382
4.06015014648 -5.80653858185 -0.619877815247
4.1063914299 -5.83094215393 -0.623949289322
4.14772224426 -5.84788274765 -0.627246618271
4.1999912262 -5.87970066071 -0.632166266441
4.25365543365 -5.91281223297 -0.637256145477
4.30405139923 -5.94074726105 -0.641818523407
4.3496723175 -5.96154356003 -0.645637214184
4.40073060989 -5.98924541473 -0.650231659412
4.45227479935 -6.01701116562 -0.654863059521
4.51017379761 -6.05271100998 -0.660390555859
4.56247234344 -6.08024072647 -0.665059506893
4.62637901306 -6.12253856659 -0.671378970146
4.67295598984 -6.14126157761 -0.675146341324
4.72323226929 -6.1643371582 -0.679420292377
4.78728628159 -6.2047328949 -0.685637891293
4.83469390869 -6.22292518616 -0.68943554163
4.89688491821 -6.25954151154 -0.695307314396
4.96421146393 -6.30195045471 -0.701862931252
4.81539487839 -6.07104539871 -0.67794084549
4.81499004364 -6.02890634537 -0.675034224987
4.86909008026 -6.05490112305 -0.679768800735
4.91314125061 -6.06790828705 -0.683074653149
4.95062541962 -6.07245874405 -0.685451567173
4.99651575089 -6.08696174622 -0.688975811005
5.05698728561 -6.118683815 -0.694481611252
5.09625244141 -6.1242609024 -0.697050094604
5.13494825363 -6.12885141373 -0.699528217316
5.18534326553 -6.14701652527 -0.703581869602
5.24180078506 -6.17183923721 -0.70843064785
5.28093957901 -6.17583560944 -0.710917770863
5.329662323 -6.19067192078 -0.714678645134
5.37821626663 -6.20487260818 -0.718395709991
5.42365550995 -6.21507024765 -0.721677720547
5.47580432892 -6.23252296448 -0.725832104683
5.53218698502 -6.25428199768 -0.730522096157
5.57106351852 -6.25584125519 -0.732881844044
5.63480234146 -6.28486013412 -0.738490641117
5.67869710922 -6.29125213623 -0.741474807262
5.72882270813 -6.3041601181 -0.745255708694
5.78513717651 -6.32340335846 -0.749819278717
5.84863853455 -6.34993219376 -0.755286097527
5.90295743942 -6.36594152451 -0.759540140629
5.96085739136 -6.38530921936 -0.764231204987
6.00480413437 -6.38930463791 -0.767114698887
6.05399036407 -6.39851522446 -0.770653307438
4.46906852722 -4.69178771973 -0.566892266273
4.47198390961 -4.66343975067 -0.565275549889
4.48796844482 -4.64880752563 -0.565322637558
4.4868888855 -4.61661195755 -0.563233733177
4.50915193558 -4.60850191116 -0.56408560276
4.52670764923 -4.59551954269 -0.564351081848
4.53511476517 -4.57328271866 -0.563484430313
4.52405357361 -4.53163814545 -0.560219109058
4.54873847961 -4.52591323853 -0.561393618584
4.5649356842 -4.5116724968 -0.56152254343
4.57196998596 -4.4884223938 -0.560533583164
4.59581518173 -4.48167133331 -0.56161159277
4.59139347076 -4.44742393494 -0.559245944023
4.61758422852 -4.44288253784 -0.560618519783
4.61598777771 -4.41163825989 -0.55862569809
4.63197469711 -4.39729642868 -0.558773100376
4.63777256012 -4.37333059311 -0.557700455189
4.64321136475 -4.34914112091 -0.55659788847
4.65918064117 -4.33486413956 -0.556766808033
4.66941022873 -4.31526422501 -0.556257128716
4.67328596115 -4.2898850441 -0.555002272129
4.69171667099 -4.27790689468 -0.555484592915
4.70661783218 -4.26268148422 -0.555553615093
4.71675634384 -4.24316453934 -0.555067896843
4.72899723053 -4.22557592392 -0.554838061333
4.74512863159 -4.21146297455 -0.555070877075
4.73928117752 -4.17795085907 -0.552745223045
4.75173711777 -4.16070175171 -0.552567780018
4.76857233047 -4.14727926254 -0.552905440331
4.77789640427 -4.12733411789 -0.552378952503
4.78499412537 -4.10553121567 -0.551604986191
4.8011302948 -4.09150838852 -0.551880657673
4.82249450684 -4.08188247681 -0.552760124207
4.82663822174 -4.0576915741 -0.551672577858
4.83446836472 -4.03668689728 -0.551017522812
4.83899021149 -4.01300382614 -0.549996256828
4.84355974197 -3.98946094513 -0.548992276192
4.86502456665 -3.97983837128 -0.549909651279
4.8779425621 -3.96318125725 -0.549864768982
4.87321233749 -3.93228721619 -0.547842264175
4.89000225067 -3.91883730888 -0.548249602318
4.91147089005 -3.90907168388 -0.549184083939
4.90543699265 -3.87747502327 -0.547052621841
4.93184185028 -3.87155032158 -0.548546552658
4.93844509125 -3.8500430584 -0.547842204571
4.94281959534 -3.82687783241 -0.54690104723
4.95248889923 -3.80787444115 -0.546555161476
4.96910667419 -3.7942097187 -0.546982109547
4.96885251999 -3.76771020889 -0.545560538769
4.9883146286 -3.75619316101 -0.546311557293
4.98935937881 -3.73083209991 -0.545052945614
5.00146198273 -3.71380209923 -0.545011758804
5.01044368744 -3.69447445869 -0.544637620449
5.02429533005 -3.67874765396 -0.544799506664
5.03870630264 -3.66341209412 -0.545027256012
5.04953193665 -3.64546632767 -0.544873058796
5.05500984192 -3.62370109558 -0.544150054455
5.06379461288 -3.604357481 -0.54379183054
5.08064985275 -3.59075093269 -0.544305920601
5.09192991257 -3.57318353653 -0.544227838516
5.09305238724 -3.54854607582 -0.543073117733
5.1199092865 -3.54181838036 -0.544667601585
5.12325048447 -3.51879072189 -0.54376488924
5.13339519501 -3.50048589706 -0.543592870235
5.13728570938 -3.47796273232 -0.542766988277
5.15389966965 -3.46406745911 -0.543292105198
5.15990447998 -3.44304394722 -0.542705178261
5.17021083832 -3.42492413521 -0.542578399181
5.18349218369 -3.40877175331 -0.542769670486
5.19183063507 -3.38937473297 -0.542449831963
5.1987657547 -3.36909723282 -0.541991114616
5.20981121063 -3.35150551796 -0.541968166828
5.22324991226 -3.33544397354 -0.542199730873
5.23092031479 -3.3157043457 -0.541838884354
5.2345199585 -3.29343628883 -0.541064918041
5.2509098053 -3.27922558784 -0.541619539261
5.26493740082 -3.26350021362 -0.541934788227
5.26645421982 -3.24004912376 -0.540969669819
5.26440143585 -3.21450471878 -0.539648711681
5.29012918472 -3.20591402054 -0.541181087494
5.29109668732 -3.18229436874 -0.540185570717
5.3068561554 -3.16759204865 -0.540707170963
5.31890916824 -3.15064787865 -0.540855884552
5.3253364563 -3.13038277626 -0.540439128876
5.33815336227 -3.11388206482 -0.540677309036
5.3394317627 -3.09068083763 -0.539754211903
5.36118888855 -3.0793235302 -0.540906906128
5.36753511429 -3.05908083916 -0.540509283543
5.37841081619 -3.04143476486 -0.540574550629
5.38734197617 -3.02269148827 -0.540450572968
5.40298223495 -3.00769329071 -0.541004896164
5.40541028976 -2.98534941673 -0.540242731571
5.42203950882 -2.9708533287 -0.540906190872
6.66107177734 -3.62076091766 -0.663298010826
6.67656850815 -3.60023760796 -0.66363543272
6.66892528534 -3.56730675697 -0.661683142185
6.68609714508 -3.54771232605 -0.662203013897
6.69403743744 -3.52321338654 -0.66181576252
6.70045614243 -3.49795365334 -0.661287128925
6.71687698364 -3.47791814804 -0.661753177643
6.72607707977 -3.45413374901 -0.661514878273
6.73393678665 -3.42968702316 -0.661153256893
6.7396440506 -3.40418386459 -0.660589277744
6.75341463089 -3.38276743889 -0.660823583603
6.76194047928 -3.35872554779 -0.660552203655
6.78311824799 -3.34093809128 -0.661522984505
6.78558778763 -3.31393122673 -0.660676538944
6.78368091583 -3.28487634659 -0.659414827824
6.80100297928 -3.26516056061 -0.660030782223
6.80770301819 -3.24033617973 -0.659622907639
6.81773376465 -3.21711778641 -0.659545958042
6.82580900192 -3.19299077988 -0.659287810326
6.83712291718 -3.17038726807 -0.659350216389
6.84112358093 -3.14441657066 -0.658715605736
6.84653615952 -3.11914229393 -0.658226132393
6.86120271683 -3.09808731079 -0.658633828163
6.86899662018 -3.07392239571 -0.658388912678
6.8683590889 -3.04603815079 -0.657345235348
6.88750696182 -3.02693653107 -0.658202826977
6.90065908432 -3.00515174866 -0.658493101597
6.90561008453 -2.97980356216 -0.65800845623
6.92598628998 -2.96109056473 -0.659000337124
6.93290805817 -2.93659543991 -0.658718407154
6.9313249588 -2.90855455399 -0.65763771534
6.92752075195 -2.87968015671 -0.656357049942
6.95903158188 -2.86545276642 -0.658428609371
6.95473527908 -2.83644962311 -0.657118618488
6.9757566452 -2.81778144836 -0.658208489418
6.98953342438 -2.79612469673 -0.658620119095
6.99060249329 -2.76939964294 -0.657842218876
6.99365377426 -2.7435157299 -0.657260000706
7.01246356964 -2.72380042076 -0.658165812492
7.02233695984 -2.70057368279 -0.658238947392
7.03009033203 -2.67653369904 -0.658120810986
7.03945350647 -2.65310978889 -0.658160924911
7.05434465408 -2.63174438477 -0.658724486828
7.07069587708 -2.61087203026 -0.659430205822
7.06088733673 -2.58038163185 -0.657704889774
7.08568334579 -2.5625462532 -0.659210562706
7.08301687241 -2.53476023674 -0.658168137074
7.08588218689 -2.50901722908 -0.657648980618
7.11304187775 -2.49182724953 -0.659390628338
7.1117978096 -2.46465182304 -0.658505558968
7.12621593475 -2.44291687012 -0.659078478813
7.1482424736 -2.42371535301 -0.660360336304
7.13444566727 -2.39239692688 -0.658341050148
7.1509475708 -2.37128853798 -0.659126460552
7.14649200439 -2.34324502945 -0.657987892628
7.16788864136 -2.32367324829 -0.659236907959
7.16231203079 -2.29535675049 -0.658012509346
7.18266248703 -2.27535128593 -0.659177541733
7.19404363632 -2.25244379044 -0.65952527523
7.20268821716 -2.22866153717 -0.659629046917
7.2182598114 -2.20698857307 -0.660373687744
7.22257852554 -2.1818561554 -0.66009581089
7.23496770859 -2.15915441513 -0.660562813282
7.23085975647 -2.13155174255 -0.659531533718
7.24356079102 -2.10892486572 -0.660041332245
7.2581782341 -2.08680844307 -0.660732030869
7.2644329071 -2.06226229668 -0.660668253899
7.27097463608 -2.03780126572 -0.660638093948
7.27427911758 -2.01244688034 -0.660321593285
9.7825460434 -2.67108821869 -0.887191176414
9.78698062897 -2.63707089424 -0.886786520481
13.0321025848 -3.46463441849 -1.17976403236
13.0456418991 -3.42144417763 -1.17994451523
13.0649719238 -3.37973713875 -1.18066132069
13.0807027817 -3.33705472946 -1.18106508255
13.10983181 -3.2977104187 -1.18269026279
12.9243335724 -3.20501303673 -1.16497981548
12.7684879303 -3.12096047401 -1.14998233318
9.74193286896 -2.34660339355 -0.876684904099
9.6809797287 -2.29760694504 -0.87050151825
9.62934970856 -2.25127625465 -0.865175426006
9.58285331726 -2.20654654503 -0.860328257084
9.52769184113 -2.16023254395 -0.854720950127
9.46095657349 -2.11177515984 -0.84809422493
9.42487430573 -2.070571661 -0.844232738018
9.35542297363 -2.02245688438 -0.837399482727
9.3096818924 -1.97991979122 -0.832706391811
9.25305271149 -1.93547224998 -0.827056050301
9.21286296844 -1.89484775066 -0.822891414165
9.16507720947 -1.85301268101 -0.818063676357
9.11164474487 -1.81043231487 -0.812747895718
9.06118869781 -1.76884806156 -0.807713747025
9.02522468567 -1.73043489456 -0.803986251354
8.97048854828 -1.68877804279 -0.798601329327
8.91565895081 -1.64752328396 -0.793223917484
