3.73870372772 2.74939060211 -1.89837920666
3.72748160362 2.77135133743 -1.90002918243
3.71529459953 2.79264092445 -1.90125072002
3.70355796814 2.81431269646 -1.90276575089
3.6732506752 2.82176828384 -1.89476597309
3.66429615021 2.84554696083 -1.89781284332
3.64709687233 2.86295366287 -1.89664924145
3.6391749382 2.88768482208 -1.90037310123
3.61465144157 2.89922308922 -1.89547467232
3.60818147659 2.92523741722 -1.90009438992
3.58666801453 2.93907833099 -1.89684998989
3.5810751915 2.96599817276 -1.90208613873
3.55452680588 2.97555160522 -1.89624118805
3.54845929146 3.0022380352 -1.90137124062
3.53106856346 3.01941585541 -1.90050506592
3.50784564018 3.03152489662 -1.89653038979
3.49194359779 3.04989361763 -1.89654791355
3.48488688469 3.0760717392 -1.90144431591
3.46145343781 3.0878098011 -1.89746117592
3.44942307472 3.10969114304 -1.8997733593
3.43377780914 3.12836050987 -1.9001595974
3.41871881485 3.14758396149 -1.90092790127
3.40504074097 3.16811990738 -1.90252780914
3.38370394707 3.18151187897 -1.89989542961
3.36259055138 3.19502425194 -1.89741575718
3.35587000847 3.22226929665 -1.90312564373
3.33142805099 3.23252367973 -1.89884495735
3.31695985794 3.25240516663 -1.90028691292
3.29571509361 3.26562476158 -1.89789402485
3.27841424942 3.28270769119 -1.8978112936
3.26757359505 3.30632543564 -1.90153968334
3.24577260017 3.31887340546 -1.89894795418
3.23079776764 3.33838033676 -1.90039598942
3.20770096779 3.34946131706 -1.89710879326
3.18410301208 3.35989165306 -1.89353966713
3.1793692112 3.39030504227 -1.90126395226
3.1613612175 3.40670609474 -1.90114486217
3.14091086388 3.42044377327 -1.89959979057
3.12676858902 3.44106602669 -1.90192651749
3.11163330078 3.46067357063 -1.90372514725
3.09291553497 3.4763250351 -1.90339291096
3.06192278862 3.47802186012 -1.8955103159
3.03597021103 3.48519778252 -1.89072453976
3.00030255318 3.48091578484 -1.87984609604
2.96611881256 3.47794508934 -1.86982190609
2.92869949341 3.4707429409 -1.85767316818
2.91195845604 3.48782396317 -1.85862231255
2.87393927574 3.47918438911 -1.8459675312
2.84148001671 3.4768371582 -1.83679628372
2.81695365906 3.48392796516 -1.83271861076
2.78023529053 3.47561120987 -1.82065427303
2.75359749794 3.4795358181 -1.81512618065
2.71919107437 3.47330832481 -1.80441939831
2.6956179142 3.48062205315 -1.8008556366
2.66113758087 3.47354960442 -1.78995656967
2.6374104023 3.48020505905 -1.78623950481
2.61045312881 3.48239421844 -1.78031730652
2.57572841644 3.47385382652 -1.76902627945
2.54749846458 3.47368097305 -1.76211583614
2.52760672569 3.4847035408 -1.76096391678
2.49354410172 3.47592258453 -1.74989902973
2.47280240059 3.4854285717 -1.74813699722
2.4413831234 3.47963857651 -1.73879230022
2.40958857536 3.47288870811 -1.72908580303
2.38684010506 3.47888541222 -1.72582018375
2.35590291023 3.47266387939 -1.71658563614
2.32631754875 3.46803379059 -1.70824742317
2.3023993969 3.47156333923 -1.70401954651
2.2727766037 3.4661962986 -1.69551563263
2.25368881226 3.47668194771 -1.69484436512
2.22610092163 3.47387242317 -1.68776476383
2.20310711861 3.47797703743 -1.68412673473
2.17066335678 3.46681499481 -1.67319059372
2.15418434143 3.48091840744 -1.67452597618
2.1261537075 3.47620177269 -1.6668741703
2.10303902626 3.4792406559 -1.66302406788
2.07657456398 3.47648024559 -1.65648031235
2.05152273178 3.47578430176 -1.65100359917
2.03210115433 3.48446512222 -1.65004599094
2.00770235062 3.48445987701 -1.64503872395
1.98077189922 3.47974920273 -1.63789176941
1.9585236311 3.48299241066 -1.63456499577
1.93407416344 3.48209881783 -1.62936663628
1.90861487389 3.47908806801 -1.62325549126
1.88442909718 3.47810077667 -1.61816513538
1.85831797123 3.47323966026 -1.61135065556
1.83409667015 3.47158312798 -1.60610103607
1.81660330296 3.48253464699 -1.60674142838
1.7892677784 3.47441196442 -1.59864580631
1.768481493 3.47871518135 -1.59633982182
1.7455483675 3.47860980034 -1.59207189083
1.72090709209 3.47481036186 -1.58618378639
1.70451688766 3.48755073547 -1.58790028095
1.67042958736 3.46369814873 -1.57303285599
1.65286052227 3.47367525101 -1.57360863686
1.63214969635 3.47699522972 -1.57121646404
1.60979604721 3.47662305832 -1.56721460819
1.58660292625 3.47416687012 -1.56233787537
1.56315815449 3.47084903717 -1.55714082718
1.5456892252 3.48066139221 -1.55788755417
1.52124750614 3.4745965004 -1.55158352852
1.49645185471 3.46730542183 -1.54480469227
1.48425519466 3.4891898632 -1.55106818676
1.46069395542 3.48438119888 -1.54550671577
1.43441402912 3.4726190567 -1.53693425655
1.42122375965 3.49244141579 -1.5423899889
1.39867675304 3.48929858208 -1.53774380684
1.37325179577 3.47854304314 -1.52981126308
1.34989821911 3.47255635262 -1.52404654026
1.33114552498 3.47817993164 -1.52343213558
1.31243014336 3.48385930061 -1.52288639545
1.29031515121 3.48033046722 -1.5183672905
1.26624917984 3.47111701965 -1.51143205166
1.24377167225 3.46580553055 -1.50626039505
1.2227410078 3.46419668198 -1.50275588036
1.20731401443 3.47846078873 -1.50617825985
1.18383574486 3.46940231323 -1.49954915047
1.16584217548 3.47616505623 -1.49981093407
1.14541101456 3.47555470467 -1.49693715572
1.1229197979 3.46834373474 -1.4912763834
1.10509097576 3.47531843185 -1.49176490307
1.0857899189 3.47762179375 -1.49029076099
1.06827139854 3.48561406136 -1.49129629135
1.04660487175 3.47990560532 -1.48648691177
1.02686297894 3.48028659821 -1.48433065414
1.00523781776 3.47396254539 -1.4793664217
0.982568621635 3.46349430084 -1.47269570827
0.967081904411 3.47822260857 -1.47678303719
0.949841916561 3.48691487312 -1.47833991051
0.926313877106 3.47219347954 -1.47002029419
0.904899835587 3.46472525597 -1.46483075619
0.884571611881 3.46097040176 -1.46126329899
0.867261707783 3.46891355515 -1.46267807484
0.850299060345 3.4784321785 -1.46479272842
0.832123875618 3.48311066628 -1.46490645409
0.80935806036 3.46813321114 -1.45680344105
0.789811074734 3.46635055542 -1.45429611206
0.770690798759 3.46619343758 -1.45251584053
0.755225121975 3.48267626762 -1.45774447918
0.735645353794 3.48034572601 -1.45513546467
0.71473044157 3.47120189667 -1.44972646236
0.69668930769 3.47569227219 -1.45005714893
0.676842093468 3.47096800804 -1.44658660889
0.656104564667 3.46107244492 -1.4410097599
0.639298379421 3.4717400074 -1.44403636456
0.621173322201 3.47547197342 -1.44421494007
0.60363471508 3.48261713982 -1.44584977627
0.583990514278 3.47748017311 -1.44242668152
0.563105225563 3.46416473389 -1.43565988541
0.545991301537 3.47373008728 -1.43841850758
0.526716113091 3.46953368187 -1.43551814556
0.507238149643 3.46344304085 -1.43187880516
0.49186244607 3.48576116562 -1.44002020359
0.469474643469 3.4579846859 -1.42750930786
0.452551841736 3.469632864 -1.43131923676
0.434580057859 3.4736866951 -1.43203246593
0.41519883275 3.46613240242 -1.42800152302
0.397002011538 3.46802067757 -1.42790281773
0.380810558796 3.48825979233 -1.43539452553
0.360833793879 3.47391843796 -1.42869544029
0.341588377953 3.46525192261 -1.42437553406
0.324697464705 3.48063874245 -1.42998111248
0.305334568024 3.46957969666 -1.42476069927
0.287548035383 3.47596025467 -1.42674255371
0.268362879753 3.46494626999 -1.42162489891
0.250202506781 3.46631574631 -1.42162930965
0.23300845921 3.48213505745 -1.42759680748
0.213329523802 3.46014308929 -1.41810286045
0.195799574256 3.47194600105 -1.42250013351
0.177446469665 3.46986818314 -1.42124831676
0.159315571189 3.47194433212 -1.42173719406
0.141307041049 3.47735238075 -1.42362892628
0.122736290097 3.46825814247 -1.4196228981
0.104477018118 3.46610736847 -1.41849899292
0.0861307904124 3.4593269825 -1.41552007198
0.0683823078871 3.47909998894 -1.42344474792
0.0500118173659 3.46984100342 -1.41952979565
0.0318004339933 3.46704649925 -1.41829895973
0.013598324731 3.45871686935 -1.41484284401
-0.00453525409102 3.46530222893 -1.41752696037
-0.0228337869048 3.48649764061 -1.4262264967
-0.0408836118877 3.46764922142 -1.41858434677
-0.0591514334083 3.47306919098 -1.42090892792
-0.0773490443826 3.47264003754 -1.42087972164
-0.0953831002116 3.46627616882 -1.41846084595
-0.113792568445 3.47324848175 -1.42153859138
-0.1320399791 3.47386741638 -1.42205560207
-0.14967417717 3.45999336243 -1.41667771339
-0.168899282813 3.4817481041 -1.42592787743
-0.185781627893 3.45550370216 -1.41555893421
-0.204287588596 3.46126937866 -1.41833996773
-0.222604006529 3.4629676342 -1.41949439049
-0.241363689303 3.47060608864 -1.42312443256
-0.259835392237 3.47314214706 -1.42470300198
-0.278527379036 3.47791576385 -1.4272403717
-0.295933932066 3.46686005592 -1.42332029343
-0.314407408237 3.46868252754 -1.42472541332
-0.334056854248 3.48238158226 -1.4310516119
-0.352164447308 3.47923350334 -1.43049657345
-0.369739979506 3.47121930122 -1.42797851562
-0.38802832365 3.47015619278 -1.428358078
-0.40632262826 3.46905589104 -1.42876207829
-0.424163609743 3.46416401863 -1.42764317989
-0.44133657217 3.45426630974 -1.42449772358
-0.462336629629 3.47372984886 -1.43350362778
-0.479660719633 3.46495270729 -1.43089926243
-0.498079508543 3.46425461769 -1.43166923523
-0.517342627048 3.46908140182 -1.43476474285
-0.536717712879 3.4741101265 -1.43798804283
-0.55452722311 3.46881866455 -1.43698096275
-0.572832763195 3.46668505669 -1.43732082844
-0.592150449753 3.47042798996 -1.44013953209
-0.611349761486 3.47307920456 -1.44254934788
-0.62945830822 3.46936964989 -1.44235873222
-0.645598173141 3.45514774323 -1.43783307076
-0.669185698032 3.48027062416 -1.44972717762
-0.687073051929 3.47499060631 -1.44900763035
-0.70663112402 3.47802352905 -1.45179653168
-0.72173678875 3.45936322212 -1.44556617737
-0.741459012032 3.46302485466 -1.44870007038
-0.760709285736 3.46416044235 -1.4508228302
-0.778433084488 3.45826482773 -1.45004224777
-0.796683132648 3.45473790169 -1.45029401779
-0.819871306419 3.47209310532 -1.45936334133
-0.839878022671 3.47529268265 -1.46253800392
-0.85903096199 3.47469758987 -1.46416187286
-0.878726541996 3.47607755661 -1.46666359901
-0.893708467484 3.45895552635 -1.46139538288
-0.916461825371 3.47180056572 -1.46883118153
-0.934145748615 3.46510744095 -1.46805047989
-0.952358961105 3.46041083336 -1.46815490723
-0.977900028229 3.48179292679 -1.4793806076
-0.992597639561 3.46428418159 -1.47413122654
-1.01397633553 3.47011756897 -1.47885417938
-1.02955877781 3.45606827736 -1.47514593601
-1.0551224947 3.47521924973 -1.48565971851
-1.07826709747 3.48563671112 -1.4925082922
-1.09485149384 3.47464895248 -1.49023973942
-1.41820216179 4.41990327835 -1.89881062508
-1.44177699089 4.41373491287 -1.89938044548
-1.46665835381 4.41144800186 -1.9016777277
-1.48735296726 4.39659976959 -1.89861083031
-1.51606869698 4.40529727936 -1.90577149391
-1.53455686569 4.38421821594 -1.90010523796
-1.55628287792 4.37266683578 -1.89860749245
-1.58289968967 4.37474346161 -1.90308475494
-1.60320425034 4.35932207108 -1.90000486374
-1.62548005581 4.34939908981 -1.89936637878
-1.65213525295 4.35105323792 -1.90384352207
-1.66924917698 4.32765054703 -1.89740502834
-1.6955717802 4.32820510864 -1.90151762962
-1.71417701244 4.30907249451 -1.89703261852
-1.7451004982 4.32074451447 -1.90617084503
-1.75893342495 4.29011297226 -1.89669764042
-1.78226459026 4.28293609619 -1.89762794971
-1.80208837986 4.267390728 -1.89489841461
-1.83296048641 4.27780628204 -1.90376245975
-1.85124433041 4.25869178772 -1.89954721928
-1.87387371063 4.24969816208 -1.89988970757
-1.89439964294 4.23597860336 -1.89816820621
-1.91508376598 4.22271251678 -1.89669466019
-1.94381523132 4.22703552246 -1.90318548679
-1.95570933819 4.19484806061 -1.89328181744
-1.98172414303 4.19313097 -1.89716792107
-2.007376194 4.19042444229 -1.9006768465
-2.03358411789 4.18865537643 -1.90468192101
-2.04736042023 4.16138458252 -1.89713394642
-2.06722259521 4.14675426483 -1.89537668228
-2.0958006382 4.14947795868 -1.90161550045
-2.10954809189 4.12286520004 -1.89445972443
-2.1396446228 4.12819290161 -1.90203380585
-2.15904045105 4.11271762848 -1.90009069443
-2.18615818024 4.11187171936 -1.90496635437
-2.20616841316 4.09755945206 -1.90366590023
-2.22643232346 4.08378076553 -1.90265882015
-2.2445306778 4.06613111496 -1.89988970757
-2.26523900032 4.05329561234 -1.8994127512
-2.28474211693 4.03835344315 -1.89799535275
-2.30615377426 4.02681493759 -1.89822638035
-2.32929372787 4.01824522018 -1.89991462231
-2.35395956039 4.01218938828 -1.90285778046
-2.37869930267 4.00610971451 -1.9058599472
-2.3889234066 3.97572088242 -1.8973325491
-2.41307139397 3.96865200996 -1.89996778965
-2.42884612083 3.94784283638 -1.89607298374
-2.45115017891 3.93771052361 -1.89734971523
-2.47261118889 3.92617678642 -1.89800977707
-2.50155377388 3.92635297775 -1.90440607071
-2.51272058487 3.898645401 -1.89732766151
-2.54146289825 3.89822721481 -1.9035794735
-2.55832624435 3.87950277328 -1.90095663071
-2.57918143272 3.86688351631 -1.90136992931
-2.59362602234 3.84474110603 -1.89713943005
-2.62133765221 3.8422358036 -1.90265524387
-2.63137221336 3.81385970116 -1.89540600777
-2.65707349777 3.80826163292 -1.89951789379
-2.67722392082 3.79461193085 -1.89968121052
-2.70045518875 3.78527212143 -1.90206408501
-2.71474528313 3.76343226433 -1.89821219444
-2.74425959587 3.76263213158 -1.9050360918
-2.75718855858 3.73904466629 -1.90038299561
-2.77623152733 3.72385692596 -1.90003204346
-2.79982590675 3.71472144127 -1.90283095837
-2.81775760651 3.69803476334 -1.90182113647
-2.83672595024 3.6827352047 -1.90157175064
-2.86087346077 3.6740963459 -1.90482604504
-2.87698221207 3.65510869026 -1.9027723074
-2.88932228088 3.6314675808 -1.89832139015
-2.90746164322 3.61521840096 -1.89776575565
-2.92914319038 3.60334849358 -1.89956653118
-2.94846844673 3.58853673935 -1.89987754822
-2.96410989761 3.56927609444 -1.89787793159
-2.98609519005 3.55765175819 -1.89999139309
-3.00076889992 3.5373237133 -1.89750730991
-3.01866292953 3.52084851265 -1.89712917805
-3.03764486313 3.50564265251 -1.89748704433
-3.06426358223 3.49914264679 -1.90263438225
-3.07928848267 3.47934222221 -1.90061616898
-3.10945653915 3.4765496254 -1.9079656601
-3.110039711 3.44074392319 -1.89723348618
-3.13192558289 3.42866659164 -1.89959776402
-3.14581847191 3.4078400135 -1.89716660976
-3.16963458061 3.39774084091 -1.9007652998
-3.1843662262 3.37787032127 -1.8989584446
-3.20598840714 3.3652985096 -1.90130960941
-3.20932173729 3.3336417675 -1.8929002285
-3.23296308517 3.32316756248 -1.89654672146
-3.25220370293 3.30808281898 -1.8976380825
-3.27749729156 3.2990500927 -1.90228295326
-3.28483533859 3.27196335793 -1.89656412601
-3.30823278427 3.26091122627 -1.90018057823
-3.32678723335 3.24500465393 -1.90104436874
-3.34140920639 3.22527050972 -1.89971554279
-3.36235547066 3.21162343025 -1.90202963352
-3.36929988861 3.18465948105 -1.89649128914
-3.39219760895 3.17281031609 -1.89999496937
-3.41958045959 3.16498923302 -1.90601634979
-3.42543292046 3.13723874092 -1.90008866787
-3.44476413727 3.12190794945 -1.90171062946
-3.45729374886 3.10042119026 -1.89963209629
-3.47771787643 3.08600974083 -1.90194249153
-3.48831105232 3.06288671494 -1.89893162251
-3.50152683258 3.0421435833 -1.89742147923
-3.52216291428 3.02782940865 -1.89997971058
-3.54485535622 3.01517724991 -1.90367114544
-3.55937027931 2.99551868439 -1.9030097723
-3.56475687027 2.96828055382 -1.89754724503
-3.5845823288 2.95311784744 -1.89983665943
-3.600045681 2.93432331085 -1.89985632896
-3.61847257614 2.91791725159 -1.9014852047
-3.64163923264 2.90523791313 -1.90563249588
-3.64643168449 2.87792086601 -1.90022230148
-3.66107654572 2.85847115517 -1.90002179146
-3.67621302605 2.83940696716 -1.90012896061
-3.70114612579 2.82782316208 -1.90533053875
-3.71792531013 2.80990958214 -1.90636193752
-3.72080397606 2.78156995773 -1.90033769608
-3.7275390625 2.75627326965 -1.89637446404
-3.75839996338 2.74874615669 -1.90472042561
-3.76051783562 2.72016310692 -1.89854347706
-3.7633960247 2.69231772423 -1.8928476572
-3.79196381569 2.68282580376 -1.90011882782
-3.80558085442 2.66264510155 -1.89992439747
-3.82344269753 2.64540672302 -1.9018945694
-3.84020972252 2.62735700607 -1.90336000919
-3.82520842552 2.58777022362 -1.88917756081
-3.85728788376 2.58011126518 -1.89831709862
-3.8765437603 2.56369042397 -1.90115582943
-3.88648366928 2.54109072685 -1.89947378635
-3.90336561203 2.52302885056 -1.90123665333
-3.91516256332 2.50166320801 -1.90057122707
-3.92916822433 2.48171210289 -1.90103077888
-3.94480443001 2.46276426315 -1.90232563019
-3.94994449615 2.43730020523 -1.89861893654
-3.96161103249 2.41592645645 -1.89811527729
-3.97608089447 2.39625644684 -1.89900541306
-3.99406599998 2.37865281105 -1.90161573887
-4.00495243073 2.35679316521 -1.90089249611
-4.00908994675 2.3310303688 -1.89703249931
-4.03087902069 2.3155207634 -1.90157485008
-4.03114557266 2.28766226768 -1.89601910114
-4.05873012543 2.27528071404 -1.90335905552
-4.08059549332 2.25951623917 -1.90803384781
-4.07394981384 2.22802209854 -1.89944088459
-4.0834569931 2.20550179482 -1.89845871925
-4.09043836594 2.18166208267 -1.89636313915
-4.10688877106 2.16286921501 -1.89870917797
-4.13017416 2.14756155014 -1.90424525738
-4.13524532318 2.12274384499 -1.90142846107
-4.13997983932 2.09783601761 -1.89852452278
-4.16656589508 2.08393931389 -1.90568208694
-4.16670131683 2.05678105354 -1.90078818798
-4.17994832993 2.03614854813 -1.90193760395
-4.18432569504 2.01121902466 -1.89910757542
-4.19697523117 1.99029231071 -1.90008890629
-4.19225597382 -2.23596715927 -1.90251171589
-4.18135547638 -2.25837731361 -1.90290951729
-4.15652942657 -2.27318453789 -1.8970066309
-4.14022541046 -2.29253482819 -1.89502263069
-4.13897895813 -2.32026720047 -1.89999127388
-4.12993764877 -2.34372639656 -1.90145277977
-4.11238908768 -2.36234354973 -1.8990470171
-4.10005092621 -2.38391852379 -1.89909231663
-4.08288002014 -2.40265130997 -1.89694476128
-4.07254934311 -2.42539334297 -1.8980243206
-4.0711016655 -2.45352244377 -1.90331554413
-4.04779481888 -2.46848416328 -1.89844083786
-4.04390668869 -2.49527907372 -1.90272414684
-4.03461027145 -2.5188305378 -1.90453445911
-4.00517034531 -2.52971601486 -1.89686918259
-4.01044559479 -2.56254601479 -1.90570127964
-3.9842209816 -2.57529139519 -1.89962661266
-3.97897219658 -2.6015625 -1.90359807014
-3.95981740952 -2.61876225471 -1.90097343922
-3.94871497154 -2.64126634598 -1.90226209164
-3.93165516853 -2.65978169441 -1.90073227882
-3.91798639297 -2.68056964874 -1.90088915825
-3.90320539474 -2.70059370995 -1.90055799484
-3.89482522011 -2.725086689 -1.9034049511
-3.87026262283 -2.73822236061 -1.89838755131
-3.85171031952 -2.7554974556 -1.89634442329
-3.84587049484 -2.78190279007 -1.90062057972
-3.84213042259 -2.80998325348 -1.90602338314
-3.8111140728 -2.81807136536 -1.89793658257
-3.79897379875 -2.84000754356 -1.89927637577
-3.78957104683 -2.86405730247 -1.90205299854
-3.77330422401 -2.88295507431 -1.90144503117
-3.75624608994 -2.901222229 -1.90048444271
-3.74101066589 -2.92088150978 -1.90049433708
-3.72470831871 -2.93970012665 -1.90001249313
-3.71171021461 -2.96113920212 -1.90127158165
-3.69872546196 -2.98263263702 -1.90260052681
-3.68076109886 -3.00011277199 -1.90142083168
-3.66644525528 -3.02055978775 -1.90217638016
-3.65271115303 -3.04151797295 -1.90329408646
-3.6268517971 -3.05231046677 -1.89812815189
-3.60775470734 -3.06867837906 -1.89652371407
-3.59408450127 -3.08965682983 -1.8978228569
-3.58599615097 -3.11553096771 -1.90214681625
-3.56459903717 -3.12987089157 -1.89947104454
-3.5428314209 -3.14378929138 -1.89662456512
-3.53395795822 -3.16917181015 -1.90073895454
-3.52041268349 -3.19046664238 -1.90242004395
-3.49118709564 -3.19746088982 -1.8956553936
-3.49321770668 -3.23314404488 -1.90593159199
-3.46773934364 -3.24346637726 -1.90127789974
-3.4487323761 -3.25973916054 -1.90019667149
-3.43265175819 -3.27876853943 -1.90077745914
-3.40339255333 -3.28509950638 -1.89408218861
-3.39725756645 -3.31374263763 -1.90030610561
-3.38020634651 -3.33185529709 -1.90050888062
-3.35977458954 -3.34660887718 -1.89885556698
-3.33434987068 -3.35627651215 -1.89440047741
-3.31645822525 -3.37344121933 -1.89425325394
-3.31457281113 -3.40705418587 -1.90334796906
-3.29202246666 -3.4195458889 -1.90066289902
-3.27710485458 -3.43994879723 -1.90243184566
-3.26478123665 -3.4631717205 -1.90578699112
-3.2455136776 -3.47908091545 -1.90515637398
-3.21676802635 -3.48469901085 -1.89897572994
-3.19573140144 -3.49851775169 -1.89735400677
-3.18866562843 -3.52773070335 -1.90410864353
-3.16305780411 -3.53647875786 -1.89985764027
-3.14731931686 -3.55621147156 -1.90157186985
-3.12749552727 -3.57134819031 -1.90087592602
-3.11319041252 -3.5928273201 -1.9035987854
-3.0932290554 -3.60781955719 -1.90292751789
-3.06953454018 -3.61838507652 -1.89998996258
-3.05605244637 -3.64099931717 -1.90342891216
-3.03084659576 -3.64963793755 -1.89961576462
-3.01427388191 -3.66862773895 -1.90125215054
-2.99373102188 -3.68280267715 -1.90044164658
-2.96730899811 -3.68963456154 -1.89591681957
-2.9475710392 -3.70467805862 -1.89568376541
-2.93786001205 -3.73245167732 -1.90199148655
-2.91396999359 -3.74228596687 -1.89919531345
-2.89663314819 -3.76050877571 -1.90071368217
-2.87496209145 -3.77311015129 -1.89944195747
-2.85091042519 -3.78249883652 -1.89662122726
-2.83637094498 -3.80452394485 -1.90018618107
-2.82208108902 -3.82704591751 -1.90402233601
-2.80223202705 -3.84211778641 -1.90418863297
-2.77687191963 -3.84955763817 -1.90063786507
-2.75372195244 -3.85993719101 -1.89861154556
-2.74491596222 -3.89055633545 -1.90657091141
-2.72216105461 -3.90154862404 -1.90494084358
-2.68935847282 -3.89790391922 -1.89625418186
-2.66587018967 -3.90750956535 -1.89410483837
-2.64662146568 -3.92330050468 -1.89501023293
-2.63384795189 -3.94884324074 -1.9006550312
-2.61195111275 -3.9608206749 -1.89980578423
-2.58769321442 -3.96913743019 -1.8972645998
-2.57072162628 -3.98863792419 -1.90012025833
-2.54348134995 -3.99216127396 -1.8954230547
-2.53029370308 -4.01776885986 -1.90125954151
-2.50890040398 -4.03048467636 -1.90102910995
-2.48874139786 -4.0451965332 -1.9017906189
-2.46547341347 -4.05483484268 -1.90022158623
-2.44988775253 -4.07717990875 -1.90465056896
-2.42389774323 -4.08223056793 -1.90105021
-2.40169072151 -4.09354496002 -1.9004317522
-2.38632965088 -4.11663770676 -1.90532100201
-2.35852599144 -4.11826324463 -1.90032660961
-2.34043002129 -4.13678312302 -1.90318703651
-2.31170916557 -4.13644647598 -1.8974326849
-2.2929828167 -4.15390539169 -1.89990329742
-2.26579380035 -4.15597867966 -1.89539480209
-2.25155448914 -4.18185567856 -1.90178918839
-2.22806477547 -4.19069194794 -1.90047168732
-2.20171928406 -4.1940164566 -1.89672076702
-2.18558979034 -4.21683835983 -1.90183603764
-2.15827465057 -4.21809530258 -1.89727592468
-2.14202475548 -4.24099731445 -1.90250194073
-2.11655163765 -4.24570560455 -1.89961242676
-2.09336876869 -4.2548995018 -1.89879155159
-2.06977057457 -4.26319026947 -1.89762508869
-2.04692840576 -4.27299022675 -1.89718651772
-2.02602291107 -4.28686237335 -1.8986055851
-2.00486087799 -4.3002743721 -1.89986634254
-1.97819912434 -4.30180692673 -1.89593744278
-1.95931577682 -4.32024288177 -1.8995115757
-1.93923711777 -4.33623743057 -1.90204966068
-1.91224586964 -4.33672142029 -1.89784038067
-1.88750171661 -4.34210014343 -1.89583945274
-1.86427295208 -4.35088396072 -1.89538311958
-1.84684979916 -4.37338733673 -1.90094399452
-1.82079195976 -4.37552070618 -1.89769780636
-1.80243825912 -4.3962225914 -1.90255379677
-1.77257621288 -4.38877248764 -1.89528346062
-1.75970447063 -4.42351913452 -1.90628027916
-1.72952818871 -4.41488361359 -1.89862704277
-1.7056581974 -4.42204380035 -1.89783620834
-1.68170547485 -4.42892932892 -1.89698302746
-1.66316246986 -4.45022821426 -1.90234661102
-1.63961517811 -4.45832824707 -1.90211009979
-1.61295473576 -4.45780849457 -1.89825606346
-1.59111011028 -4.47052097321 -1.90009260178
-1.57066559792 -4.48738050461 -1.90373396873
-1.54297149181 -4.48346996307 -1.89861857891
-1.52236914635 -4.50010681152 -1.90225934982
-1.49685776234 -4.50228261948 -1.89983701706
-1.47214818001 -4.50671052933 -1.89842414856
-1.45151591301 -4.52372741699 -1.90236198902
-1.42868673801 -4.534116745 -1.90355658531
-1.40018808842 -4.52628755569 -1.89716303349
-1.37825882435 -4.53952169418 -1.8996566534
-1.35164856911 -4.53727340698 -1.89572560787
-1.32978463173 -4.55090427399 -1.89848303795
-1.30630636215 -4.55916500092 -1.89904749393
-1.28037250042 -4.55874013901 -1.89604961872
-1.2603508234 -4.57950401306 -1.90191245079
-1.23603153229 -4.58491849899 -1.90144491196
-0.808048009872 -3.06110048294 -1.26771771908
-0.78916144371 -3.05432319641 -1.26318097115
-0.769819736481 -3.04526257515 -1.25774812698
-0.753145933151 -3.04640293121 -1.25657176971
-0.737286448479 -3.05078363419 -1.256767869
-0.717351317406 -3.03792881966 -1.24990653992
-0.70135396719 -3.04135227203 -1.2497856617
-0.687662601471 -3.05500817299 -1.25389921665
-0.66749048233 -3.03965568542 -1.2461451292
-0.652175366879 -3.04602074623 -1.24733638763
-0.639357805252 -3.06451177597 -1.25351917744
-0.620857715607 -3.05584859848 -1.24862754345
-0.605108678341 -3.06044173241 -1.24919140339
-0.587930202484 -3.05768084526 -1.24678981304
-0.569777786732 -3.04936790466 -1.2421656847
-0.556577980518 -3.06767702103 -1.24841856956
-0.537403345108 -3.05298948288 -1.24127829075
-0.520840644836 -3.05250096321 -1.23995292187
-0.503528058529 -3.04726457596 -1.23673701286
-0.487352967262 -3.04861354828 -1.23623096943
-0.471105456352 -3.04940962791 -1.23553574085
-0.456743240356 -3.06272745132 -1.23994493484
-0.440007656813 -3.0603518486 -1.23803269863
-0.422032803297 -3.04866242409 -1.2323923111
-0.407277971506 -3.06005072594 -1.23611617088
-0.38939011097 -3.04769015312 -1.23028182983
-0.371059179306 -3.03045773506 -1.22252380848
-0.356836616993 -3.04655981064 -1.22824835777
-0.340151965618 -3.04199576378 -1.22567272186
-0.324294120073 -3.04456138611 -1.22600495815
-0.307307839394 -3.03606939316 -1.22192013264
-0.292992144823 -3.05430197716 -1.22862327099
-0.276591747999 -3.05148339272 -1.22688961029
-0.259081274271 -3.03513216972 -1.21975278854
-0.244046479464 -3.04735970497 -1.22413599491
-0.227471888065 -3.04054880142 -1.22090435028
-0.211477145553 -3.04086303711 -1.22056877613
-0.195594221354 -3.04278659821 -1.22091269493
-0.179778203368 -3.04600381851 -1.22180891037
-0.164122641087 -3.05265069008 -1.22411322594
-0.147684797645 -3.0444252491 -1.22048771381
-0.131699025631 -3.04446458817 -1.22021007538
-0.115561075509 -3.04032063484 -1.21828973293
-0.0997956395149 -3.04602527618 -1.22034931183
-0.0838853493333 -3.04844164848 -1.22112452984
-0.0680133625865 -3.05350804329 -1.22299444675
-0.051934145391 -3.04930710793 -1.22118604183
-0.0359397903085 -3.04832625389 -1.22070109844
-0.0199704058468 -3.04928708076 -1.22102713585
-0.00399553077295 -3.05290961266 -1.22245252132
0.0119577748701 -3.04144501686 -1.21787023544
0.0279705468565 -3.04949259758 -1.22113466263
0.0441284067929 -3.06164741516 -1.22607767582
0.0597571730614 -3.04027748108 -1.217628479
0.0759274065495 -3.04952192307 -1.22147345543
0.0920613259077 -3.05420684814 -1.22352647781
0.108051642776 -3.05330228806 -1.22337400913
0.124434567988 -3.06214642525 -1.22716212273
0.14041686058 -3.06008696556 -1.22661483288
0.156134113669 -3.0531167984 -1.224132061
0.17176233232 -3.04571413994 -1.22150814533
0.187896698713 -3.04763007164 -1.22265458107
0.204218268394 -3.05188751221 -1.22477507591
0.220205754042 -3.05073928833 -1.22476065159
0.236130222678 -3.04877686501 -1.22445273399
0.253015756607 -3.05852437019 -1.22888314724
0.268743962049 -3.05379295349 -1.22753119469
0.285127788782 -3.0564661026 -1.2291893959
0.302063345909 -3.06428933144 -1.23295521736
0.315996289253 -3.04224634171 -1.22473549843
0.334222018719 -3.06150436401 -1.2331764698
0.349920451641 -3.05673861504 -1.23197853565
0.363654881716 -3.03583693504 -1.22430562973
0.37942931056 -3.03285551071 -1.22388839722
0.39681276679 -3.04229140282 -1.22851848602
0.414913147688 -3.05610394478 -1.23495709896
0.430216223001 -3.04888272285 -1.23293328285
0.444989442825 -3.03840637207 -1.22962284088
0.462922722101 -3.04931998253 -1.23500418663
0.480326741934 -3.05595612526 -1.2386944294
0.496973216534 -3.05732727051 -1.24028885365
0.51185297966 -3.04792380333 -1.23754513264
0.528285503387 -3.04789638519 -1.23864114285
0.54645049572 -3.05739665031 -1.24364864826
0.562727212906 -3.05591654778 -1.24422895908
0.578337371349 -3.05083608627 -1.24337732792
0.594605267048 -3.04924273491 -1.24398076534
0.611616909504 -3.05127739906 -1.24610137939
0.629152476788 -3.05557894707 -1.24918735027
0.644147634506 -3.0474691391 -1.24723482132
0.661930799484 -3.05245518684 -1.25067794323
0.677081406116 -3.0451836586 -1.2491351366
0.693957328796 -3.04566431046 -1.25080680847
0.710132300854 -3.04294657707 -1.25120198727
0.727756381035 -3.04624843597 -1.25411045551
0.744354665279 -3.04503130913 -1.25519800186
0.759290874004 -3.03704667091 -1.25352966785
0.778842687607 -3.04729580879 -1.25942730904
0.799872100353 -3.0625898838 -1.26746308804
0.812347173691 -3.04500102997 -1.26192843914
0.830684542656 -3.04948234558 -1.26557219028
0.849817693233 -3.05646824837 -1.27030229568
0.860565125942 -3.03343939781 -1.26258814335
0.880458652973 -3.04274296761 -1.26836359501
0.896935105324 -3.03992986679 -1.26913285255
0.917067825794 -3.04920172691 -1.27499258518
0.934098601341 -3.04782772064 -1.27644729614
0.949996709824 -3.04269647598 -1.27636575699
0.970403850079 -3.05175089836 -1.28227961063
0.983254492283 -3.0369617939 -1.27821302414
1.0022187233 -3.0410618782 -1.2821315527
1.02121770382 -3.04494142532 -1.2860057354
1.0362443924 -3.0368642807 -1.28487026691
1.05757236481 -3.04703164101 -1.29149901867
1.07663071156 -3.05024552345 -1.29523491859
1.09318828583 -3.04620075226 -1.29593217373
1.10727965832 -3.03534054756 -1.29376280308
1.12940847874 -3.04632163048 -1.3009480238
1.14735031128 -3.0456533432 -1.30321252346
1.1660733223 -3.04685902596 -1.30632519722
1.18869674206 -3.0578725338 -1.3136998415
1.20791900158 -3.05974340439 -1.31720495224
1.21816563606 -3.03897476196 -1.31099438667
1.24226260185 -3.0526714325 -1.31969320774
1.26141905785 -3.05380988121 -1.32302486897
1.27451276779 -3.04025936127 -1.32002973557
1.29287314415 -3.03928852081 -1.32253170013
1.31126499176 -3.03822422028 -1.32504057884
1.33764719963 -3.05524516106 -1.33550262451
1.35333883762 -3.04751682281 -1.33520615101
1.3783198595 -3.0604326725 -1.34401106834
1.39141225815 -3.04676008224 -1.34119033813
1.41501426697 -3.0559592247 -1.34848546982
1.4301815033 -3.04673910141 -1.34770572186
1.44695460796 -3.04094028473 -1.34847617149
1.47275090218 -3.05380415916 -1.35758423805
1.48797523975 -3.04449272156 -1.35689258575
1.50102579594 -3.03083181381 -1.35429131985
1.52713775635 -3.0433511734 -1.36344265938
1.54666936398 -3.04239678383 -1.36662745476
1.56857275963 -3.04586482048 -1.37185883522
1.5904866457 -3.04905581474 -1.37703120708
1.61137604713 -3.05001688004 -1.38125991821
1.63226628304 -3.05074381828 -1.38544380665
1.64927744865 -3.044080019 -1.38632357121
1.67223513126 -3.04820728302 -1.39217495918
1.69353711605 -3.04903674126 -1.39658784866
1.72043156624 -3.05957531929 -1.40552532673
1.72838711739 -3.03636860847 -1.39900612831
1.76082134247 -3.05598664284 -1.41227722168
1.77477443218 -3.04322433472 -1.4106580019
1.79581642151 -3.04255485535 -1.41469061375
1.82295143604 -3.05187892914 -1.4234483242
1.83364284039 -3.03355503082 -1.41936397552
1.86413776875 -3.04781317711 -1.43058633804
1.88548135757 -3.0467247963 -1.4346934557
1.90642774105 -3.04479813576 -1.43847107887
1.93336772919 -3.0521478653 -1.4467099905
1.95495283604 -3.05074048042 -1.45087885857
1.97148358822 -3.04133439064 -1.45129907131
1.99349319935 -3.04026317596 -1.45575296879
2.01825165749 -3.04312467575 -1.46216726303
2.04054617882 -3.04201078415 -1.46674990654
2.0725402832 -3.05497980118 -1.47821962833
2.08791971207 -3.0432009697 -1.47779405117
2.11475753784 -3.04795503616 -1.48546385765
2.13641619682 -3.04497718811 -1.48944854736
2.15593338013 -3.03879976273 -1.49193263054
2.18392252922 -3.04431962967 -1.50024104118
2.20818090439 -3.04432439804 -1.50592529774
2.23725652695 -3.05064582825 -1.51483094692
2.25323009491 -3.03890419006 -1.51484298706
2.28105640411 -3.04297280312 -1.52280890942
2.30352926254 -3.03963112831 -1.52715659142
2.33088803291 -3.04247879982 -1.5347032547
2.35497140884 -3.0407743454 -1.54004728794
2.38507199287 -3.04652762413 -1.54927015305
2.40597915649 -3.0402739048 -1.55248034
2.44022870064 -3.05056428909 -1.56424343586
2.4569401741 -3.03867340088 -1.56472682953
2.48152112961 -3.0363907814 -1.57022619247
2.50833368301 -3.0365831852 -1.57710146904
2.5499663353 -3.05424451828 -1.59319257736
2.57330846786 -3.0495762825 -1.59776985645
2.59827780724 -3.04663038254 -1.60333824158
2.61870980263 -3.0381963253 -1.60609960556
2.63968539238 -3.03027534485 -1.60920286179
2.67929887772 -3.0434012413 -1.62360715866
2.69966816902 -3.03432941437 -1.62629246712
2.74567437172 -3.05366420746 -1.64434421062
2.76873755455 -3.04704594612 -1.6485708952
2.78897881508 -3.03719067574 -1.65112364292
2.83472132683 -3.05471658707 -1.66870415211
2.84471583366 -3.03344917297 -1.66520690918
2.88615107536 -3.04549050331 -1.68009650707
2.91247653961 -3.04118967056 -1.68612062931
2.93905806541 -3.03692603111 -1.69227278233
2.97327542305 -3.04023909569 -1.70277786255
3.01149916649 -3.04721426964 -1.71549975872
3.04484295845 -3.04883050919 -1.72536897659
3.07024002075 -3.04220819473 -1.73070263863
3.1090593338 -3.04855084419 -1.74355578423
3.13219380379 -3.03920435905 -1.74757385254
3.17167139053 -3.04540371895 -1.7606716156
3.20447063446 -3.04478383064 -1.76999747753
3.233045578 -3.03985619545 -1.7769575119
3.26853466034 -3.04111170769 -1.78767943382
3.31227135658 -3.04957866669 -1.80283534527
3.33230400085 -3.03591251373 -1.80505478382
3.36816620827 -3.03643751144 -1.81583654881
3.40544033051 -3.03784298897 -1.82732391357
3.44244551659 -3.03860926628 -1.83861100674
3.47735762596 -3.03715419769 -1.84873139858
3.52312231064 -3.04472708702 -1.86455380917
3.56303620338 -3.04675149918 -1.877202034
3.58525371552 -3.03336882591 -1.88050663471
3.62463784218 -3.03424286842 -1.89279806614
3.66132998466 -3.03246855736 -1.90363419056
3.67067790031 -3.00791978836 -1.90027284622
3.68679070473 -2.98896789551 -1.90047943592
3.70772695541 -2.97387695312 -1.90321207047
3.72485566139 -2.95567250252 -1.90402770042
3.72140312195 -2.92128372192 -1.89441156387
3.7457215786 -2.90877866745 -1.89900529385
3.76178598404 -2.88978052139 -1.89944601059
3.77990818024 -2.87233066559 -1.90097010136
3.78941845894 -2.84835672379 -1.89822006226
3.8045027256 -2.82861614227 -1.89832484722
3.82257628441 -2.81106925011 -1.89996659756
3.83149647713 -2.78681087494 -1.89711546898
3.84100747108 -2.76306867599 -1.89462935925
3.85509061813 -2.74265813828 -1.89446055889
3.86880064011 -2.72198987007 -1.89416205883
3.90061497688 -2.71392655373 -1.90274918079
3.90866422653 -2.68923854828 -1.89977502823
3.92451477051 -2.66995167732 -1.9006524086
3.929926157 -2.64361381531 -1.89653789997
3.95096969604 -2.6278014183 -1.90002155304
3.96669483185 -2.60838198662 -1.90098416805
3.981112957 -2.58808207512 -1.90136814117
3.98516225815 -2.56110548973 -1.89686608315
4.00601577759 -2.54494357109 -1.90041804314
4.00837612152 -2.51705765724 -1.89525413513
4.02083301544 -2.49559688568 -1.89493453503
4.04054117203 -2.47859334946 -1.89807522297
4.06950473785 -2.46710371971 -1.9055814743
4.07834100723 -2.44332647324 -1.90369749069
4.08234834671 -2.41674661636 -1.89963018894
4.09177112579 -2.3934571743 -1.8981525898
4.10292434692 -2.3712117672 -1.89753603935
4.11867141724 -2.35160684586 -1.89909338951
4.14358377457 -2.33712387085 -1.90490674973
4.14717483521 -2.31058692932 -1.90096497536
4.14902973175 -2.28321170807 -1.89630484581
4.18428516388 -2.27412724495 -1.90694534779
4.17855119705 -2.24272608757 -1.89894974232
4.18684720993 -2.21899676323 -1.89740931988
4.21514511108 -2.20577931404 -1.90496897697
4.21358680725 -2.17691302299 -1.89908289909
4.22339010239 -2.15401387215 -1.89838778973
4.2196264267 -2.12430429459 -1.89166629314
4.25361728668 -2.11354970932 -1.90191292763
4.26540279388 -2.09160685539 -1.90225553513
4.26822423935 -2.06531620026 -1.89866101742
4.2845492363 -2.04557585716 -1.90112841129
4.28676509857 -2.01911759377 -1.89739048481
4.31392288208 -2.00435519218 -1.90473568439
4.31990671158 -1.97967720032 -1.9027711153
4.32254695892 -1.95354390144 -1.89939880371
4.33829259872 -1.93334674835 -1.90183961391
4.3492026329 -1.9109544754 -1.90220630169
4.34692192078 -1.88283753395 -1.89686727524
4.35879230499 -1.86091327667 -1.89776551723
4.3672542572 -1.8375287056 -1.8972312212
4.38473987579 -1.81789982319 -1.90066289902
4.4068980217 -1.80008149147 -1.9061524868
4.39582157135 -1.76873528957 -1.89732635021
4.42281579971 -1.75272381306 -1.90498709679
4.41544771194 -1.72308683395 -1.89789807796
4.43750143051 -1.70495212078 -1.90351104736
4.44632434845 -1.68165564537 -1.90348935127
4.44145822525 -1.65326344967 -1.89767098427
4.45936155319 -1.63337266445 -1.90163719654
4.47171974182 -1.61137282848 -1.90328025818
4.47728919983 -1.58692026138 -1.90208506584
4.46611976624 -1.55666577816 -1.89384829998
4.48719024658 -1.53768658638 -1.89934015274
4.49487113953 -1.51404488087 -1.89920687675
4.50162124634 -1.49009799957 -1.89873361588
4.51080226898 -1.46695387363 -1.89933729172
4.52463388443 -1.44527816772 -1.90194618702
4.5218091011 -1.41830575466 -1.8976085186
4.52857637405 -1.39440488815 -1.89735591412
4.5528254509 -1.37579286098 -1.9044687748
4.53967142105 -1.3458968401 -1.89599001408
4.55206346512 -1.32365965843 -1.8982424736
4.5609588623 -1.30036342144 -1.89908409119
4.56210517883 -1.27487838268 -1.89675366879
4.57893419266 -1.2537497282 -1.90099275112
4.57253360748 -1.22627580166 -1.89564156532
4.58540058136 -1.20400500298 -1.89833402634
4.60066318512 -1.18227660656 -1.90206170082
4.60232543945 -1.1570276022 -1.9002161026
4.61054563522 -1.13343977928 -1.90113151073
4.62408590317 -1.11110496521 -1.90428769588
4.61438798904 -1.08322942257 -1.89793014526
4.62980651855 -1.06128132343 -1.90195822716
4.63316679001 -1.0365267992 -1.90108108521
4.6439332962 -1.0134114027 -1.90329360962
4.64482545853 -0.98813533783 -1.9015109539
4.64312982559 -0.962369799614 -1.89872598648
4.65622091293 -0.939662098885 -1.90203952789
4.66401576996 -0.915825307369 -1.90323710442
4.66239547729 -0.890158414841 -1.90064632893
4.66960191727 -0.866197049618 -1.90170753002
4.65901899338 -0.839003264904 -1.895581007
4.66565418243 -0.81497913599 -1.89651691914
4.67598628998 -0.791555345058 -1.89900457859
4.672914505 -0.765868008137 -1.89610111713
4.68326568604 -0.74238473177 -1.898696661
4.70032119751 -0.719858765602 -1.90405571461
4.70712518692 -0.695675253868 -1.90530896187
4.69749832153 -0.669117569923 -1.89996695518
4.69011259079 -0.643007457256 -1.89559066296
4.6990146637 -0.619158387184 -1.8978511095
4.69804000854 -0.594000220299 -1.89617431164
4.71049261093 -0.570511817932 -1.89996767044
4.71806716919 -0.546357870102 -1.90184175968
4.72340583801 -0.521906852722 -1.90286517143
4.72100639343 -0.496614247561 -1.90082406998
4.72420454025 -0.471933811903 -1.90108990669
4.72549962997 -0.447065621614 -1.9006421566
4.73640108109 -0.423066586256 -1.90410888195
4.72640037537 -0.397219181061 -1.89922571182
4.74051141739 -0.373398452997 -1.90408337116
4.73415136337 -0.347945064306 -1.9007704258
4.71205568314 -0.321504235268 -1.89119660854
4.73859548569 -0.298376202583 -1.90119469166
4.74061584473 -0.27357044816 -1.90140402317
4.74847364426 -0.249064683914 -1.90400612354
4.73551607132 -0.223507612944 -1.89831471443
4.73018693924 -0.198418959975 -1.89573562145
4.74994421005 -0.174317792058 -1.90326154232
4.7525601387 -0.149479746819 -1.9039696455
4.74531269073 -0.124363966286 -1.90077900887
4.75524663925 -0.099691234529 -1.9045227766
4.74558925629 -0.0746117979288 -1.90047216415
4.7444319725 -0.0497267916799 -1.89987826347
4.74035358429 -0.0248413402587 -1.89816689491
4.74617910385 0.0 -1.90047359467
4.73964357376 0.0248376205564 -1.89788258076
4.74232053757 0.0497046634555 -1.89903283119
4.74664497375 0.0746283903718 -1.90089488029
4.75235033035 0.0996305122972 -1.90336275101
4.75938177109 0.124732688069 -1.90641450882
4.74253511429 0.149164423347 -1.89995336533
4.7380399704 0.173880919814 -1.89849150181
4.75155305862 0.199315190315 -1.90429842472
4.73037433624 0.223264932632 -1.89625346661
4.74004745483 0.248622715473 -1.90062725544
4.74447154999 0.273792952299 -1.90295052528
4.71937513351 0.297165960073 -1.89348316193
4.73589897156 0.323131024837 -1.90076613426
4.72786140442 0.347482740879 -1.898244977
4.73067855835 0.372623980045 -1.90013408661
4.72432661057 0.397044867277 -1.89839231968
4.71746349335 0.421375066042 -1.89649581909
4.72575044632 0.447089374065 -1.90074312687
4.71254444122 0.47076895833 -1.89639770985
4.71690416336 0.496182709932 -1.89917242527
4.72544384003 0.52213203907 -1.90368628502
4.72488355637 0.547147274017 -1.90458953381
4.69852113724 0.569061875343 -1.89513897896
4.70354366302 0.594696044922 -1.89839565754
4.70219564438 0.619577527046 -1.89913594723
4.70079135895 0.644471526146 -1.89990675449
4.69737958908 0.6691005826 -1.89991879463
4.68340110779 0.692169129848 -1.89570629597
4.692882061 0.718719482422 -1.90104222298
4.68231916428 0.742234706879 -1.89831292629
4.68569421768 0.767962574959 -1.90128672123
4.69494152069 0.79476416111 -1.90670275688
4.68225383759 0.817878782749 -1.90326452255
4.6728811264 0.841499626637 -1.90122103691
4.67143201828 0.866536557674 -1.9024528265
4.6683177948 0.891289114952 -1.90306055546
4.6569647789 0.91444081068 -1.900359869
4.65460920334 0.939336836338 -1.9013812542
4.64518642426 0.962796092033 -1.89956700802
4.63403940201 0.98584073782 -1.89709532261
4.63744688034 1.01199579239 -1.90063512325
4.63469076157 1.03686785698 -1.90170657635
4.62323093414 1.05977404118 -1.89925694466
4.62350463867 1.08536958694 -1.90167999268
4.62079048157 1.1103130579 -1.90293061733
4.60281085968 1.1315382719 -1.8979421854
4.59937143326 1.15628480911 -1.89899635315
4.59066915512 1.17970824242 -1.89792990685
4.58920097351 1.20500290394 -1.89990746975
4.58420038223 1.22940456867 -1.90047824383
4.58573865891 1.25561285019 -1.90381765366
4.58291244507 1.28069293499 -1.90540456772
4.56972026825 1.3028614521 -1.90273213387
4.57386732101 1.3299998045 -1.90733468533
4.5448217392 1.34742379189 -1.8981410265
4.54323148727 1.37289369106 -1.90045559406
4.53035020828 1.39495098591 -1.89809906483
4.52880859375 1.42050111294 -1.90054583549
4.52023077011 1.44387173653 -1.90009522438
4.50608444214 1.46541976929 -1.89735090733
4.50375366211 1.49080383778 -1.89963281155
4.49965906143 1.51565766335 -1.90122997761
4.48904895782 1.53832352161 -1.90012693405
4.47256040573 1.5589107275 -1.89657962322
4.46520996094 1.58263885975 -1.89695334435
4.46131420135 1.60762321949 -1.89885139465
4.46426010132 1.63516688347 -1.90372610092
4.45309400558 1.65759468079 -1.90264260769
4.425096035 1.67362678051 -1.89440143108
4.43849563599 1.70533418655 -1.9039375782
4.4106388092 1.72121024132 -1.89583110809
4.42742490768 1.754550457 -1.90697228909
4.39931917191 1.77014255524 -1.89883601665
4.39708328247 1.79607260227 -1.90190732479
4.37794971466 1.8150844574 -1.89771938324
4.37738895416 1.84179294109 -1.90163397789
4.36067295074 1.86171615124 -1.89858436584
4.35017156601 1.88424515724 -1.89828538895
4.35129451752 1.91187357903 -1.90312111378
4.34456539154 1.93614220619 -1.9045894146
4.32949018478 1.95668184757 -1.90244972706
4.31935214996 1.97942328453 -1.90252697468
4.30180025101 1.99872267246 -1.89938318729
4.2978014946 2.02431607246 -1.90227556229
4.28424119949 2.0454287529 -1.90099167824
4.28863620758 2.07519316673 -1.90774106979
4.26682853699 2.09230613708 -1.90289139748
4.23371362686 2.10365986824 -1.89301347733
4.24101400375 2.13507151604 -1.90125441551
4.22523355484 2.15495419502 -1.8992164135
4.22056341171 2.18051743507 -1.90222740173
4.21712827682 2.2068169117 -1.90586519241
4.1995100975 2.22570800781 -1.90314793587
4.18054533005 2.24379658699 -1.89985620975
4.17016220093 2.26645159721 -1.90050888062
4.15342617035 2.28563117981 -1.8983143568
4.14212036133 2.30777096748 -1.89864826202
4.14099168777 2.33566188812 -1.90371525288
4.11623334885 2.35021471977 -1.8979691267
4.10080528259 2.36998701096 -1.89655601978
4.09601593018 2.3959403038 -1.90012180805
4.08379983902 2.41760587692 -1.90030574799
4.06995201111 2.43830037117 -1.89978158474
4.06219577789 2.46267294884 -1.90215909481
4.05093669891 2.48497033119 -1.90295863152
4.03550767899 2.50470519066 -1.90185058117
4.01765298843 2.5228831768 -1.89964056015
4.00969839096 2.54728269577 -1.90216481686
3.98830914497 2.56312799454 -1.89836394787
3.98237419128 2.58890175819 -1.90197050571
3.95387864113 2.59995436668 -1.89484226704
3.95941829681 2.6334207058 -1.90408444405
3.94362902641 2.65283155441 -1.90315067768
3.93425345421 2.67657709122 -1.90536892414
3.90935778618 2.68971586227 -1.90011203289
3.9009552002 2.71416306496 -1.90291512012
3.88339138031 2.73225545883 -1.90130567551
3.8699452877 2.75322628021 -1.90176033974
3.85414409637 2.7725186348 -1.90110909939
3.83248877525 2.78753256798 -1.89760673046
3.83418035507 2.81960272789 -1.9057341814
3.81689572334 2.83783006668 -1.9045085907
3.80330586433 2.85879540443 -1.90517663956
3.76937365532 2.86432552338 -1.89567220211
3.76629209518 2.89324188232 -1.90172123909
3.73969221115 2.90409636497 -1.89594841003
3.72977280617 2.92785382271 -1.89867210388
3.70932912827 2.94335198402 -1.89609098434
3.69538092613 2.96397447586 -1.89687478542
3.69285225868 2.99388194084 -1.9036039114
3.67387318611 3.0105381012 -1.90192687511
3.66207838058 3.03308844566 -1.90402317047
3.63154411316 3.04002404213 -1.89640438557
3.62330436707 3.06556224823 -1.90046465397
3.60429930687 3.08203530312 -1.89894163609
3.58417248726 3.09748744965 -1.89686357975
3.575278759 3.12267947197 -1.900791049
3.56073093414 3.14301848412 -1.90178728104
3.53811049461 3.15619206429 -1.89851343632
3.529692173 3.18205475807 -1.90291786194
3.49825620651 3.18710398674 -1.8949483633
3.48710799217 3.21054935455 -1.89799714088
3.48433351517 3.24189543724 -1.90570759773
3.45283198357 3.24650931358 -1.89775729179
3.43320274353 3.26211762428 -1.89633822441
3.42635059357 3.28994393349 -1.90205025673
3.40032243729 3.29937267303 -1.89717340469
3.37982320786 3.31404519081 -1.89539980888
3.3701915741 3.33942127228 -1.8997862339
3.35077309608 3.35516119003 -1.89872503281
3.35549998283 3.39529466629 -1.91145968437
3.31471824646 3.38937187195 -1.89832019806
3.30230665207 3.41227054596 -1.90142679214
3.27744436264 3.4222869873 -1.89741158485
3.25925254822 3.43918991089 -1.89728760719
3.2457318306 3.46107053757 -1.89994907379
3.21882939339 3.46863436699 -1.89481544495
3.19633388519 3.48079919815 -1.89228475094
3.15492582321 3.47205352783 -1.87851655483
3.12944817543 3.48048686981 -1.87418079376
3.08447265625 3.46683573723 -1.85810041428
3.06150007248 3.47754144669 -1.85521411896
3.0298781395 3.47820425034 -1.84707176685
3.01138424873 3.49377250671 -1.84693360329
2.96168637276 3.47274804115 -1.82758939266
2.92940425873 3.4715783596 -1.8188700676
2.90785503387 3.48290896416 -1.81679773331
2.86996912956 3.4743783474 -1.80447793007
2.83724117279 3.47165036201 -1.79531443119
2.81294488907 3.47897005081 -1.791451931
2.78200364113 3.47782206535 -1.78332912922
2.75157904625 3.47698521614 -1.77548182011
2.73123049736 3.4886868 -1.77412414551
2.68841910362 3.471326828 -1.75810730457
2.65979194641 3.47179317474 -1.7512601614
2.62938594818 3.46961665154 -1.74318790436
2.60656380653 3.47720575333 -1.74011409283
2.58882761002 3.49152040482 -1.74046468735
2.55495834351 3.48385286331 -1.72994458675
2.52879571915 3.48634243011 -1.72457671165
2.49049830437 3.47167658806 -1.71084260941
2.47057127953 3.48228359222 -1.70966613293
2.44188404083 3.48035240173 -1.70241200924
2.41833519936 3.4854953289 -1.69870519638
2.3828895092 3.47312760353 -1.68656861782
2.35773444176 3.47536349297 -1.68163144588
2.33014798164 3.47374415398 -1.6749163866
2.30638861656 3.47757840157 -1.67091453075
2.2728536129 3.46631383896 -1.65975654125
2.25230693817 3.47455024719 -1.65802598
2.22991776466 3.4798283577 -1.65494561195
2.20505023003 3.48104453087 -1.65000581741
2.17676115036 3.47655367851 -1.64244771004
2.15343356133 3.47970485687 -1.63858258724
