0.544938504696 3.22009563446 0.285727083683
0.532466709614 3.21181702614 0.28483247757
0.523298084736 3.22345876694 0.285707682371
0.510921180248 3.2153377533 0.284834474325
0.498929351568 3.2092590332 0.28414618969
0.488328009844 3.21197605133 0.284240186214
0.478419721127 3.21940684319 0.284754216671
0.468257397413 3.22536277771 0.285140544176
0.455496042967 3.21319627762 0.283928364515
0.445080041885 3.21730613708 0.284158051014
0.433727473021 3.21460723877 0.283789664507
0.424672305584 3.22916197777 0.284947246313
0.412434786558 3.21957373619 0.283977538347
0.400903820992 3.21505188942 0.283458560705
0.390332430601 3.21811199188 0.283611387014
0.379035264254 3.21511673927 0.283233821392
0.368383020163 3.21750116348 0.283333480358
0.35647842288 3.20868325233 0.282450139523
0.348043888807 3.23145246506 0.284350126982
0.335341572762 3.21471405029 0.282776713371
0.324995398521 3.22012090683 0.283154845238
0.313125580549 3.21020698547 0.282189190388
0.303197771311 3.22013020515 0.282970517874
0.292758077383 3.22507762909 0.283317446709
0.279813081026 3.20166611671 0.281176805496
0.270587146282 3.22056150436 0.282754927874
0.259635716677 3.21956562996 0.282589495182
0.247958257794 3.2090113163 0.281588554382
0.238029450178 3.22108078003 0.282576054335
0.22636282444 3.20958733559 0.281499564648
0.216722294688 3.22703313828 0.282964378595
0.205188289285 3.21656227112 0.281984299421
0.193207740784 3.19745779037 0.280251145363
0.183819249272 3.22144961357 0.282298356295
0.172291666269 3.20853471756 0.281114429235
0.161372303963 3.20590019226 0.280834585428
0.151414483786 3.223279953 0.282311022282
0.140822678804 3.22872424126 0.282744914293
0.129233658314 3.21022677422 0.281085520983
0.118768274784 3.21873521805 0.281794071198
0.107719369233 3.21147012711 0.281124830246
0.0971794128418 3.21937012672 0.281786262989
0.0864437073469 3.22186851501 0.281977981329
0.075327694416 3.20879817009 0.280810385942
0.0646630600095 3.21371841431 0.281220436096
0.0541726946831 3.23091435432 0.282707691193
0.0432110950351 3.22148680687 0.281868517399
0.0322048924863 3.20124387741 0.280086308718
0.0215758401901 3.21688365936 0.281446754932
0.0107666999102 3.2099571228 0.28083601594
4.2808787839e-06 3.22648119926 0.282280117273
-0.0107902064919 3.21951246262 0.281672000885
-0.0216345544904 3.22691464424 0.282324373722
-0.0323753096163 3.21903300285 0.281642705202
-0.0430596284568 3.21082997322 0.280936062336
-0.0538149476051 3.21008634567 0.280885189772
-0.0646061003208 3.21131157875 0.281009793282
-0.075701199472 3.22507357597 0.282234668732
-0.0864263698459 3.22154140472 0.281949341297
-0.0967413038015 3.20513820648 0.280540555716
-0.107672944665 3.21034049988 0.281025916338
-0.118461988866 3.21066570282 0.281087577343
-0.129289597273 3.21182847023 0.28122574091
-0.1400847435 3.21200084686 0.281280368567
-0.150632426143 3.20681333542 0.28086873889
-0.161807373166 3.21471309662 0.281606584787
-0.172365322709 3.21006536484 0.281248480082
-0.183422863483 3.21465301514 0.281702727079
-0.193750500679 3.20658135414 0.281050741673
-0.205444544554 3.22071361542 0.28234821558
-0.214892104268 3.19990825653 0.280585855246
-0.225939080119 3.20370030403 0.28098320961
-0.238045111299 3.22140908241 0.282604783773
-0.248281463981 3.21330523491 0.28196528554
-0.259518414736 3.21821784973 0.282471120358
-0.269709199667 3.21021389961 0.281846404076
-0.281003803015 3.21538901329 0.282381892204
-0.291265815496 3.20873308182 0.281881541014
-0.303601533175 3.22450995445 0.28335532546
-0.314034700394 3.21961593628 0.283016204834
-0.323589354753 3.20627474785 0.281937271357
-0.33555072546 3.21680188179 0.282960265875
-0.346021264791 3.21275353432 0.282704621553
-0.35699608922 3.2134206295 0.282867074013
-0.367349207401 3.20854711533 0.282544881105
-0.379310131073 3.21752166748 0.283445596695
-0.390045642853 3.21581888199 0.283409208059
-0.402062058449 3.22440981865 0.284283518791
-0.412240296602 3.21812319756 0.28384950757
-0.422344654799 3.21152877808 0.283391177654
-0.43436652422 3.21940803528 0.284213364124
-0.443348675966 3.20485329628 0.283058106899
-0.455258667469 3.21158289909 0.283785700798
-0.466793566942 3.21533966064 0.284254342318
-0.476068735123 3.20364499092 0.283359974623
-0.489985793829 3.22293782234 0.285210132599
-0.499764353037 3.21468615532 0.284626603127
-0.512867152691 3.22763967514 0.285924136639
-0.525512814522 3.23715543747 0.286921560764
-0.532724201679 3.21342325211 0.284974813461
-0.543358027935 3.21080827713 0.284902870655
-0.553603589535 3.20597672462 0.284637242556
-0.567144632339 3.21997213364 0.286047011614
-0.578574299812 3.2215988636 0.286362230778
-0.587155461311 3.20752954483 0.285285055637
-0.598109543324 3.20663189888 0.285381942987
-0.612196624279 3.22218394279 0.286947101355
-0.62157946825 3.21278882027 0.286294400692
-0.631048619747 3.20408987999 0.285706192255
-0.642812371254 3.20706796646 0.286162316799
-0.653968751431 3.20689201355 0.286340653896
-0.669000864029 3.22533345222 0.288185924292
-0.676082909107 3.20539689064 0.286605507135
-0.686084210873 3.19965171814 0.286295890808
-0.702526032925 3.22356987 0.288645148277
-0.715173721313 3.22952151299 0.289391160011
-0.721867084503 3.20874476433 0.287744671106
-0.732586681843 3.20615506172 0.287731051445
-0.746747553349 3.21840047836 0.289053082466
-0.758824706078 3.22135782242 0.289545565844
-0.770334839821 3.22178077698 0.289814084768
-0.78075504303 3.21762418747 0.289674043655
-0.790663540363 3.21143364906 0.289353758097
-0.803905248642 3.21868944168 0.290248721838
-0.817921519279 3.22872281075 0.291399151087
-0.827007234097 3.21920871735 0.290789097548
-0.838298082352 3.21834540367 0.290963381529
-0.84970420599 3.21786594391 0.291175961494
-0.860577762127 3.21533298492 0.291206210852
-0.873853862286 3.22164821625 0.292041897774
-0.885656654835 3.2223610878 0.292374044657
-0.895129740238 3.21461176872 0.291941612959
-0.90436321497 3.20613479614 0.291445463896
-0.919553935528 3.21864771843 0.292861521244
-0.929516196251 3.21269822121 0.29260212183
-0.938491165638 3.20344877243 0.29204466939
-0.953543841839 3.21484017372 0.293372958899
-0.965733528137 3.21634197235 0.293803840876
-0.980234742165 3.22533559799 0.294923961163
-0.987023413181 3.20896220207 0.293727725744
-1.0035033226 3.22403216362 0.295413464308
-1.01542031765 3.22418403625 0.295737653971
-1.02088832855 3.20401334763 0.294199824333
-1.03875315189 3.22268724442 0.296232610941
-1.04921460152 3.21815013885 0.296137273312
-1.06150186062 3.21917319298 0.296557247639
-1.07336592674 3.21882534027 0.296855062246
-1.08495593071 3.2175924778 0.297075182199
-1.09574246407 3.21395039558 0.297076433897
-1.11172759533 3.22538995743 0.298476696014
-1.11872935295 3.21072077751 0.297464668751
-1.13466060162 3.22163844109 0.298826932907
-1.14985072613 3.23016262054 0.299973517656
-1.15346741676 3.2062561512 0.298110872507
-1.16362595558 3.20076179504 0.297961086035
-1.17968297005 3.21135735512 0.29931396246
-1.19479763508 3.21911549568 0.300408750772
-1.20911419392 3.22450590134 0.30128839612
-1.21569621563 3.20928740501 0.300245583057
-1.22820949554 3.2097928524 0.300676465034
-1.23949539661 3.20703077316 0.300805300474
-1.25797116756 3.22265982628 0.302665144205
-1.27051877975 3.22286248207 0.303082555532
-1.28263473511 3.22189378738 0.303394168615
-1.28691327572 3.20136427879 0.3018656075
-1.3050122261 3.2151954174 0.303580671549
-1.31593465805 3.21116757393 0.30361521244
-1.33291852474 3.22178339958 0.305039793253
-1.34239268303 3.21413493156 0.304740041494
-1.35325372219 3.20983481407 0.304760813713
-1.37353849411 3.22767496109 0.306890189648
-1.38674890995 3.22863078117 0.307421416044
-1.39024245739 3.20706868172 0.305810451508
-1.40804815292 3.2185292244 0.307351708412
-1.41781842709 3.21149563789 0.307132273912
-1.43287193775 3.21636247635 0.308055430651
-1.4511744976 3.22828435898 0.309661537409
-1.45413684845 3.20608568192 0.307998150587
-1.46982085705 3.21199369431 0.309037417173
-1.48886620998 3.22499203682 0.310766577721
-1.49222385883 3.20399284363 0.309223413467
-1.51329636574 3.22097682953 0.311350524426
-1.52273070812 3.21302294731 0.311073422432
-1.53620457649 3.21356773376 0.311623096466
-1.55544269085 3.22597050667 0.31332975626
-1.56022429466 3.20834636688 0.312124282122
-1.58447980881 3.23063755035 0.31480795145
-1.59191560745 3.21845936775 0.314139574766
-1.60868728161 3.22511196136 0.315313607454
-1.41509091854 -3.32531905174 0.443729698658
-1.40161311626 -3.32454037666 0.442996233702
-1.39548325539 -3.34125137329 0.444597035646
-1.37659311295 -3.32734894753 0.442130506039
-1.36411011219 -3.32872629166 0.44170331955
-1.34985387325 -3.32567334175 0.440695166588
-1.33710455894 -3.32622146606 0.440171271563
-1.31990861893 -3.315523386 0.438167452812
-1.31289315224 -3.33035135269 0.43954282999
-1.29883372784 -3.32734107971 0.438568353653
-1.28819549084 -3.33303570747 0.438747167587
-1.27346169949 -3.3280544281 0.437526941299
-1.25494503975 -3.3128991127 0.434978932142
-1.24944853783 -3.33207082748 0.436943650246
-1.2337231636 -3.32399153709 0.435339301825
-1.22043049335 -3.32228088379 0.434576928616
-1.20697677135 -3.32000589371 0.433747559786
-1.19368100166 -3.31803679466 0.432964980602
-1.18471419811 -3.32810091972 0.433757483959
-1.16936278343 -3.32016849518 0.432210206985
-1.15678632259 -3.31994342804 0.431673616171
-1.14476776123 -3.32124757767 0.431341677904
-1.13709115982 -3.33523130417 0.432660222054
-1.1243005991 -3.33427476883 0.432044714689
-1.1095546484 -3.32734870911 0.430662781
-1.09587728977 -3.32342243195 0.429676622152
-1.08470726013 -3.32701325417 0.4296682477
-1.07561802864 -3.337059021 0.430497437716
-1.05825054646 -3.32127308846 0.428000867367
-1.04306459427 -3.31196045876 0.426347702742
-1.03370583057 -3.32106637955 0.427071332932
-1.02309596539 -3.32623934746 0.42729306221
-1.00648355484 -3.31170368195 0.424989879131
-0.996638059616 -3.31926846504 0.425529450178
-0.988760530949 -3.33357191086 0.426935762167
-0.97542321682 -3.32951283455 0.425994664431
-0.961529791355 -3.32334709167 0.424790918827
-0.952003121376 -3.33222699165 0.425515562296
-0.938658833504 -3.32771921158 0.424535661936
-0.925068378448 -3.3221282959 0.423424333334
-0.914818167686 -3.32846188545 0.42383825779
-0.898945510387 -3.3141541481 0.421630203724
-0.887723326683 -3.31675577164 0.421580135822
-0.879196286201 -3.32955360413 0.422829777002
-0.866700410843 -3.3273859024 0.422183096409
-0.852874040604 -3.31989789009 0.420867800713
-0.840184867382 -3.31660676003 0.420091122389
-0.827334880829 -3.3124973774 0.419216901064
-0.817876815796 -3.32196545601 0.420065760612
-0.806035518646 -3.32180929184 0.419701904058
-0.795072317123 -3.32524037361 0.419796258211
-0.783920824528 -3.32789564133 0.41979727149
-0.773975014687 -3.33574771881 0.420458078384
-0.761688530445 -3.33351874352 0.419852852821
-0.747473120689 -3.32256531715 0.418155282736
-0.735669016838 -3.32207250595 0.417780488729
-0.725995242596 -3.33125925064 0.41862732172
-0.715091645718 -3.33493185043 0.418785214424
-0.701040744781 -3.32372522354 0.417080432177
-0.690758824348 -3.33023118973 0.417603880167
-0.680339574814 -3.33620762825 0.418064922094
-0.668821752071 -3.33683204651 0.417859792709
-0.653444349766 -3.31780219078 0.415200084448
-0.642393052578 -3.32036876678 0.415249377489
-0.632159233093 -3.32725358009 0.415843009949
-0.619490683079 -3.3212621212 0.414832264185
-0.608906984329 -3.32635450363 0.415210962296
-0.596728622913 -3.32268476486 0.414500832558
-0.587952792645 -3.33811068535 0.416176944971
-0.575059115887 -3.33022785187 0.414951443672
-0.562257766724 -3.32249045372 0.413750141859
-0.550808191299 -3.3225069046 0.413519889116
-0.540929436684 -3.33212161064 0.414488494396
-0.529838621616 -3.33444643021 0.414554357529
-0.518091022968 -3.33257102966 0.414102882147
-0.506334602833 -3.33047366142 0.413629025221
-0.494739592075 -3.32928824425 0.413273453712
-0.482513815165 -3.32362318039 0.412367105484
-0.471528381109 -3.32635617256 0.412507712841
-0.459302335978 -3.32017850876 0.411548316479
-0.447499722242 -3.31674790382 0.410934776068
-0.437272548676 -3.32504105568 0.411778360605
-0.425766676664 -3.32371592522 0.411435127258
-0.415416538715 -3.33150863647 0.412225037813
-0.403569549322 -3.32731986046 0.411536991596
-0.391835719347 -3.32377076149 0.410933256149
-0.381815254688 -3.33489823341 0.41214838624
-0.370373636484 -3.33383560181 0.411861270666
-0.35849237442 -3.32854580879 0.411056995392
-0.345509320498 -3.31227135658 0.408901810646
-0.337578773499 -3.34488844872 0.412786334753
-0.325445502996 -3.33660411835 0.411627054214
-0.313273400068 -3.32723355293 0.41033911705
-0.301171690226 -3.31786131859 0.409056454897
-0.291516005993 -3.33567500114 0.41112986207
-0.280780494213 -3.34198999405 0.411789864302
-0.268826216459 -3.33364129066 0.410647779703
-0.256652504206 -3.32164478302 0.409061729908
-0.246171191335 -3.33137750626 0.410156369209
-0.233888566494 -3.31641983986 0.408215939999
-0.223138287663 -3.32270026207 0.408894628286
-0.212484359741 -3.33107542992 0.40983530879
-0.200696334243 -3.32153534889 0.408576458693
-0.189585447311 -3.32265806198 0.408634066582
-0.179027542472 -3.33414006233 0.40997004509
-0.167336374521 -3.32456088066 0.408720880747
-0.156155347824 -3.3243906498 0.408633321524
-0.145424976945 -3.33444690704 0.409807175398
-0.134076848626 -3.33075404167 0.409295767546
-0.123018138111 -3.33415055275 0.409660160542
-0.111501820385 -3.3245010376 0.408426314592
-0.0998386889696 -3.30775785446 0.406325936317
-0.0891306996346 -3.32234501839 0.408078849316
-0.0779335051775 -3.32017588615 0.407777994871
-0.0670368820429 -3.33213591576 0.40921702981
-0.0557656660676 -3.32644748688 0.408493191004
-0.0445990785956 -3.32562232018 0.408371180296
-0.0333870872855 -3.31963229179 0.407619595528
-0.0221925321966 -3.3101401329 0.40644261241
-0.0111229140311 -3.31878352165 0.407497048378
4.42374721388e-06 -3.33416032791 0.409382820129
0.0111337788403 -3.31939721107 0.407572418451
0.0223320517689 -3.32963228226 0.408836036921
0.0335902646184 -3.33895301819 0.409992039204
0.044659011066 -3.32943224907 0.408839046955
0.0554571636021 -3.30752158165 0.406169056892
0.0670817047358 -3.3339240551 0.409436643124
0.0780654996634 -3.32542300224 0.408422499895
0.0890882611275 -3.32043457031 0.407844185829
0.100531250238 -3.33041024208 0.409108579159
0.111623451114 -3.32786393166 0.40883949399
0.122580848634 -3.32205963135 0.408174604177
0.133641958237 -3.31973099709 0.407941251993
0.144712939858 -3.31791853905 0.407775878906
0.156137287617 -3.32381820679 0.408562988043
0.166970908642 -3.3171248436 0.407806754112
0.17815220356 -3.31767368317 0.407945364714
0.190028846264 -3.33027338982 0.40957069397
0.201601549983 -3.33636975288 0.410401254892
0.212406173348 -3.32971072197 0.409667462111
0.223662003875 -3.33036661148 0.409838110209
0.234303966165 -3.32218432426 0.408925563097
0.244158878922 -3.30402588844 0.406788945198
0.256348341703 -3.31759357452 0.408562898636
0.267091393471 -3.31201887131 0.407984346151
0.280238181353 -3.33542895317 0.410981535912
0.291549324989 -3.3359541893 0.411164373159
0.301932275295 -3.32614254951 0.410077542067
0.31342664361 -3.32876634598 0.41052827239
0.323550611734 -3.31708574295 0.409219235182
0.335544139147 -3.32464027405 0.410287678242
0.34642457962 -3.32096004486 0.40997454524
0.356909185648 -3.31376361847 0.409231573343
0.36941498518 -3.32512617111 0.41078543663
0.380083590746 -3.31969547272 0.410269647837
0.391830295324 -3.3236489296 0.410918295383
0.402393728495 -3.31755185127 0.410328984261
0.414290904999 -3.32240962982 0.41109931469
0.42610219121 -3.32626485825 0.411750793457
0.437985301018 -3.33039259911 0.41244122386
0.448956757784 -3.32748031616 0.4122646451
0.460247129202 -3.32694292068 0.412386953831
0.469635933638 -3.3129427433 0.410844445229
0.483025938272 -3.32708859444 0.412797212601
0.495843559504 -3.33665633202 0.414188235998
0.503352642059 -3.31080079079 0.411185890436
0.517756640911 -3.33036184311 0.413828551769
0.530443966389 -3.33819890022 0.415021061897
0.538267493248 -3.3156683445 0.41244199872
0.551856517792 -3.32877588272 0.41430029273
0.562305510044 -3.32271909714 0.413778781891
0.574904501438 -3.3292798996 0.414833515882
0.58827573061 -3.33989238739 0.416399270296
0.598015725613 -3.32980108261 0.415388792753
0.607750356197 -3.31998634338 0.414416253567
0.619797766209 -3.3228597641 0.415032029152
0.631472408772 -3.32359051704 0.415385395288
0.643665671349 -3.3268995285 0.416066348553
0.65611076355 -3.33129405975 0.416888684034
0.664813876152 -3.31679058075 0.415350288153
0.678526818752 -3.32727313042 0.416945546865
0.693668246269 -3.3442132473 0.419357419014
0.702094614506 -3.32867789268 0.417702138424
0.713500499725 -3.32746839523 0.417848229408
0.725816905499 -3.33039832115 0.418519407511
0.733186244965 -3.31081938744 0.416365563869
0.746223092079 -3.31696772575 0.41745108366
0.758433222771 -3.31923127174 0.418053627014
0.770982444286 -3.32281017303 0.418827593327
0.781558334827 -3.31782674789 0.418527424335
0.794487178326 -3.32275438309 0.419482648373
0.810899078846 -3.34181427956 0.422229737043
0.813195049763 -3.30291175842 0.41765666008
0.830116271973 -3.32359600067 0.420621782541
0.840611934662 -3.3182554245 0.420300215483
0.855021834373 -3.32822155952 0.421923309565
0.867409169674 -3.33007073402 0.422524034977
0.878436803818 -3.32664179802 0.422460287809
0.890188395977 -3.32593035698 0.422746598721
0.898412466049 -3.31215405464 0.421376049519
0.912787914276 -3.32104063034 0.422893583775
0.921376168728 -3.30883479118 0.421730309725
0.938762545586 -3.32805299759 0.42457857728
0.953729331493 -3.33823561668 0.426283180714
0.957638025284 -3.3098628521 0.423067688942
0.973593652248 -3.32323503494 0.425191789865
0.984161436558 -3.31803393364 0.424946129322
0.998326003551 -3.32485795021 0.426246374846
1.00629103184 -3.31103897095 0.424904942513
1.0243139267 -3.33016753197 0.427798002958
1.03791677952 -3.33456373215 0.428807407618
1.04595530033 -3.32110834122 0.427525669336
1.05771124363 -3.31955003738 0.427779197693
1.06842875481 -3.31472444534 0.427616536617
1.08100700378 -3.31563401222 0.428199052811
1.09171581268 -3.31077241898 0.428041517735
1.10637938976 -3.31779718399 0.429426908493
1.11528134346 -3.30749797821 0.428575456142
1.1343280077 -3.32709765434 0.431605488062
1.14283227921 -3.31560373306 0.430609107018
1.15943360329 -3.32751274109 0.432658195496
1.16606616974 -3.31078004837 0.430988460779
1.18460857868 -3.32777643204 0.433715611696
1.19164443016 -3.31234788895 0.432223051786
1.20581388474 -3.31677985191 0.433326512575
1.22197520733 -3.32645869255 0.435123831034
1.2347599268 -3.32675766945 0.43570202589
1.25114512444 -3.33656835556 0.437533855438
1.25693225861 -3.31811881065 0.435664713383
1.26815676689 -3.3141644001 0.435701310635
1.28489911556 -3.3244805336 0.437621444464
1.29249048233 -3.31106543541 0.436423510313
1.3119212389 -3.32786011696 0.439214497805
1.31992983818 -3.31555104256 0.438171565533
1.33841574192 -3.32945799828 0.440600007772
1.35272860527 -3.33273053169 0.441630810499
1.35996496677 -3.31858634949 0.440358251333
1.37057840824 -3.31278586388 0.440195858479
1.38904392719 -3.3258087635 0.442542672157
1.39283657074 -3.30369830132 0.440219521523
1.40843844414 -3.30966186523 0.441640943289
1.4225256443 -3.3119020462 0.442573785782
1.43671619892 -3.31425213814 0.443529069424
1.44932961464 -3.31286668777 0.443991452456
1.46568500996 -3.31989455223 0.44558942318
1.47022950649 -3.30019521713 0.443604558706
1.49806928635 -3.33258295059 0.448630660772
1.50069260597 -3.30870866776 0.44609156251
1.51339161396 -3.30718541145 0.446567803621
1.5259885788 -3.30537891388 0.447012215853
1.54272055626 -3.31239295006 0.448657780886
1.55709993839 -3.31418800354 0.449605494738
1.57376694679 -3.3206884861 0.451200664043
1.58555829525 -3.31678771973 0.451390445232
1.60743916035 -3.33378815651 0.454434990883
1.60881090164 -3.3082344532 0.451684445143
1.62368261814 -3.31054711342 0.452740937471
1.64172720909 -3.31914377213 0.454666823149
1.65366840363 -3.31526875496 0.454892933369
1.66620540619 -3.31255030632 0.455283910036
1.68121349812 -3.31465625763 0.456345528364
1.70309472084 -3.33007359505 0.459251672029
1.70745933056 -3.31117558479 0.457432389259
1.72678089142 -3.32126045227 0.459622830153
1.73191344738 -3.30401849747 0.458037763834
1.74805390835 -3.3077917099 0.45937076211
1.76838004589 -3.31926608086 0.461785107851
1.78384840488 -3.32141685486 0.462913781404
1.79252135754 -3.31088614464 0.462281137705
1.81389474869 -3.32369923592 0.464916706085
1.82364785671 -3.31508946419 0.464565038681
1.84405016899 -3.32572484016 0.466919243336
1.84584271908 -3.30279755592 0.464566618204
1.86903393269 -3.31812119484 0.467600822449
1.87418949604 -3.30133938789 0.466118782759
1.90180265903 -3.32397174835 0.470211923122
1.91594564915 -3.32279491425 0.470951557159
1.92615020275 -3.31476020813 0.470725417137
1.93720161915 -3.30819535255 0.470712870359
1.95268690586 -3.30914568901 0.471777021885
1.97191238403 -3.31627225876 0.473732948303
1.98902547359 -3.31966519356 0.475167602301
2.00116276741 -3.31466412544 0.475409477949
2.01650238037 -3.31490206718 0.476410627365
2.02677679062 -3.30677056313 0.476215928793
2.05045723915 -3.32036805153 0.479161500931
2.06277227402 -3.31539344788 0.479439020157
2.07806563377 -3.31514143944 0.480407416821
2.09697580338 -3.32051753998 0.482202649117
2.1112473011 -3.31841945648 0.482923179865
2.12451648712 -3.31468439102 0.483413547277
2.13712596893 -3.30987811089 0.483754873276
2.15405297279 -3.31167507172 0.485070347786
2.17919445038 -3.32587766647 0.488218069077
2.17826128006 -3.30026245117 0.485527276993
2.20990133286 -3.32390570641 0.490092933178
2.22460341454 -3.32180857658 0.490880727768
2.24286365509 -3.32490897179 0.492447376251
2.25400876999 -3.31738495827 0.492449522018
2.2677397728 -3.31363916397 0.493019402027
2.28069400787 -3.30871129036 0.493421137333
2.29392838478 -3.30414819717 0.493884831667
2.31792926788 -3.31493782997 0.496656477451
2.33234143257 -3.31184887886 0.497362494469
2.35809016228 -3.32467651367 0.500473439693
2.35905790329 -3.3025200367 0.498326003551
2.38497519493 -3.31524515152 0.501449882984
2.39419531822 -3.30463242531 0.501056015491
2.42075109482 -3.31781601906 0.504282772541
2.42744970322 -3.30367660522 0.503367900848
2.44600152969 -3.30564022064 0.504913806915
2.4689412117 -3.31335067749 0.507353067398
2.48452925682 -3.31104183197 0.508272230625
2.4980969429 -3.30597543716 0.50877737999
2.52096128464 -3.31308102608 0.511168777943
2.54077577591 -3.31599140167 0.512929320335
2.56006574631 -3.3180642128 0.514574766159
2.57499194145 -3.31437373161 0.515338420868
2.58136105537 -3.29967665672 0.514396071434
2.60433340073 -3.3061401844 0.516762018204
2.62136888504 -3.30491042137 0.51794064045
2.64301848412 -3.3093547821 0.520022988319
2.66840147972 -3.31826019287 0.522825300694
2.68412327766 -3.31498980522 0.523725032806
2.70719480515 -3.32065677643 0.526051402092
2.71635341644 -3.30917406082 0.525672137737
2.73566317558 -3.31000590324 0.527258396149
2.75964546204 -3.31631708145 0.529734551907
2.77324533463 -3.31002545357 0.530211865902
2.78733801842 -3.30427742004 0.530785143375
2.81104540825 -3.3098013401 0.533183455467
2.83329224586 -3.31341528893 0.53529292345
2.84275627136 -3.30200457573 0.534986317158
2.8582046032 -3.29752349854 0.535809934139
2.88438534737 -3.30527210236 0.538637340069
2.90276360512 -3.3039059639 0.539997696877
2.92431807518 -3.30601787567 0.541942358017
2.94246792793 -3.30414700508 0.543249845505
2.96143078804 -3.30307579041 0.544703125954
2.99040269852 -3.31297421455 0.54798579216
3.01119852066 -3.31360888481 0.549757659435
3.02853131294 -3.3103146553 0.550892651081
3.04964447021 -3.31103301048 0.552710711956
3.06532263756 -3.30574393272 0.553540349007
3.08016443253 -3.29949212074 0.554219663143
3.10659122467 -3.30551290512 0.556977391243
3.1240336895 -3.30181860924 0.558116674423
3.15141797066 -3.30847096443 0.561024069786
3.16963911057 -3.30533862114 0.562291800976
3.19615674019 -3.31069993973 0.56502366066
3.22060847282 -3.31372117996 0.567378938198
3.22515320778 -3.29621291161 0.566229462624
3.25863623619 -3.30817174911 0.570157408714
3.26111221313 -3.28855800629 0.568658292294
3.29324674606 -3.2987678051 0.572329878807
3.32734727859 -3.3106508255 0.576323866844
3.3479449749 -3.30888152122 0.577966690063
3.36683678627 -3.30531167984 0.579311668873
3.39163851738 -3.30740213394 0.581667840481
3.40048766136 -3.2938606739 0.581288218498
3.43867301941 -3.30857419968 0.585916161537
3.46059632301 -3.30739569664 0.58775883913
3.48206210136 -3.30564379692 0.589518964291
3.50152468681 -3.30187058449 0.590936422348
3.52974367142 -3.30619287491 0.59382468462
3.55425286293 -3.30684804916 0.596079349518
3.5737156868 -3.3026714325 0.597482979298
3.59209370613 -3.29739499092 0.598703861237
3.61891794205 -3.29972910881 0.601327359676
3.63509583473 -3.29222750664 0.602177977562
3.66726112366 -3.29904508591 0.605670630932
3.68863248825 -3.29596233368 0.607371747494
3.71311736107 -3.29551815987 0.609580636024
3.74545788765 -3.30183815956 0.613069057465
3.76780438423 -3.29915356636 0.614912748337
3.78783249855 -3.29431915283 0.61637532711
3.81661248207 -3.2969391346 0.619256258011
3.84044981003 -3.29511070251 0.621327877045
3.87310600281 -3.30064868927 0.624817252159
3.89811348915 -3.29946303368 0.627063333988
3.93529367447 -3.30835008621 0.631256401539
3.95985937119 -3.30640554428 0.633415102959
3.9728910923 -3.29474258423 0.633729100227
4.00577688217 -3.29941034317 0.637206614017
4.03993320465 -3.30487155914 0.640873670578
4.06424570084 -3.30207681656 0.642970621586
4.08918190002 -3.29963779449 0.645161688328
4.11829900742 -3.30039620399 0.648006141186
4.14345836639 -3.29780554771 0.650221467018
4.16967153549 -3.29589319229 0.65259718895
4.19754648209 -3.29512047768 0.655227124691
4.22553777695 -3.29425597191 0.657868683338
4.25267314911 -3.29254579544 0.660370886326
4.27710199356 -3.28858232498 0.662448465824
4.31669521332 -3.29605484009 0.666865408421
4.33697128296 -3.28857636452 0.668290615082
4.37279891968 -3.2927107811 0.672106385231
4.40180253983 -3.29148197174 0.674864292145
4.42864561081 -3.28846120834 0.677285552025
4.45889520645 -3.28778743744 0.680222034454
4.50526475906 -3.2987177372 0.68560475111
4.51878118515 -3.28539848328 0.685981571674
4.56853342056 -3.2982134819 0.69185167551
4.59552145004 -3.29431533813 0.69426214695
4.60758447647 -3.27963161469 0.694419384003
4.66576814651 -3.29753303528 0.701518118382
4.69246864319 -3.29286766052 0.703868746758
4.7142162323 -3.28459501266 0.70547503233
4.75961732864 -3.29257774353 0.710613191128
4.78730535507 -3.28805446625 0.71309709549
4.81904840469 -3.28613138199 0.716180205345
4.85860204697 -3.28929281235 0.72041541338
4.90047073364 -3.29373145103 0.724982023239
4.91882324219 -3.28217816353 0.72606498003
4.96569395065 -3.2894449234 0.731351435184
4.99454545975 -3.28451633453 0.733974695206
5.02337169647 -3.27939987183 0.736590921879
5.05514478683 -3.27602267265 0.739635109901
5.1037902832 -3.28330135345 0.745137691498
5.13364744186 -3.27822589874 0.747887909412
5.16785573959 -3.27573013306 0.751267254353
5.22273015976 -3.28601837158 0.757638573647
5.26176166534 -3.28600263596 0.761698186398
5.29915142059 -3.28470778465 0.765512228012
5.33427906036 -3.28177642822 0.768992841244
5.37486362457 -3.28195428848 0.773252904415
3.18030619621 3.25037765503 0.558355808258
3.15761113167 3.24890232086 0.556280612946
3.13740968704 3.24984741211 0.554638206959
3.09792232513 3.23055124283 0.549569249153
3.08318328857 3.23683595657 0.54887676239
3.08778166771 3.26350355148 0.551640152931
3.05467247963 3.25026988983 0.547668933868
3.03633785248 3.25254487991 0.54633384943
3.00540924072 3.24113130569 0.542721092701
2.98549509048 3.2413854599 0.541084468365
2.96983623505 3.24615859985 0.54021602869
2.94897866249 3.24514055252 0.538398146629
2.91578507423 3.23030757904 0.53431224823
2.91291594505 3.24896407127 0.53577965498
2.89366316795 3.24934339523 0.534239292145
2.8652882576 3.23928332329 0.531002819538
2.85039067268 3.24429535866 0.530254840851
2.82347798347 3.23547720909 0.527263343334
2.8120443821 3.24426817894 0.527156531811
2.79249691963 3.24362611771 0.525527894497
2.77846837044 3.24930119514 0.524935126305
2.75976777077 3.24942564964 0.523457407951
2.7447116375 3.25374555588 0.522667884827
2.72158622742 3.24836730957 0.520335257053
2.70361614227 3.24898552895 0.518979310989
2.68137264252 3.24431729317 0.516794681549
2.65592312813 3.23555541039 0.513977587223
2.63411474228 3.23101663589 0.511850774288
2.62409186363 3.2408490181 0.512011766434
2.60257863998 3.23640680313 0.50992846489
2.59185481071 3.24529218674 0.509956359863
2.5716676712 3.24224925041 0.5081204772
2.55543017387 3.24405860901 0.507058441639
2.54030776024 3.24719953537 0.506215274334
2.51601195335 3.238458395 0.503534674644
2.50335884094 3.24456739426 0.503176629543
2.48371315002 3.24151849747 0.501409590244
2.47319841385 3.25031065941 0.501484036446
2.45185208321 3.24477529526 0.499358862638
2.42800021172 3.23570752144 0.496707767248
2.41814517975 3.24518179893 0.496914774179
2.39711523056 3.23957300186 0.494822502136
2.37708854675 3.23513698578 0.492924809456
2.35567688942 3.2286272049 0.490726739168
2.34755158424 3.24025177956 0.491294503212
2.3265838623 3.23407793045 0.489172875881
2.31588578224 3.24208188057 0.489206343889
2.29341602325 3.233492136 0.486747205257
2.28068971634 3.23850512505 0.486348003149
2.26244282722 3.23558521271 0.484767585993
2.25048422813 3.24157142639 0.484531253576
2.23092508316 3.23650884628 0.48265376687
2.22383475304 3.24948477745 0.483474165201
2.19573402405 3.23161768913 0.47971779108
2.18905496597 3.24514102936 0.480633050203
2.16851496696 3.2380566597 0.478504240513
2.15040874481 3.23442316055 0.476899176836
2.14440369606 3.24896526337 0.477980554104
2.11916208267 3.23425650597 0.474768668413
2.10357928276 3.2340760231 0.473704189062
2.08235692978 3.22505450249 0.471357494593
2.07614636421 3.23921728134 0.472407400608
2.05530261993 3.23048686981 0.470126539469
2.04439711571 3.23726010323 0.47011205554
2.03187870979 3.24145960808 0.469729959965
2.01424264908 3.23739409447 0.468159526587
1.99898302555 3.23701405525 0.467132747173
1.9855530262 3.23951220512 0.466529905796
1.97363889217 3.24443912506 0.466283857822
1.95120489597 3.23191547394 0.463541150093
1.93275272846 3.22574615479 0.461724311113
1.92333054543 3.23456954956 0.462061613798
1.9105130434 3.23767518997 0.461587637663
1.89315629005 3.23297834396 0.460010498762
1.88207983971 3.23891830444 0.459955185652
1.86303198338 3.23102760315 0.457945048809
1.84857928753 3.23094773293 0.45705267787
1.83916795254 3.23964977264 0.45740878582
1.82247519493 3.23546481133 0.455952614546
1.80673182011 3.23281574249 0.454723060131
1.80090808868 3.24791836739 0.45599552989
1.7831183672 3.24141359329 0.454240351915
1.76755154133 3.23878192902 0.453038543463
1.74618959427 3.22530889511 0.450332462788
1.74094986916 3.24154257774 0.451781511307
1.72296321392 3.23401832581 0.44992518425
1.71116757393 3.23799276352 0.449677407742
1.68891263008 3.22198486328 0.446665406227
1.68115854263 3.23351097107 0.447479367256
1.66245830059 3.22390770912 0.445376485586
1.65100979805 3.22823143005 0.445206612349
1.63353562355 3.22065520287 0.443403929472
1.63596904278 3.25243782997 0.44702193141
1.61685562134 3.24146652222 0.444766402245
1.6063927412 3.24770689011 0.444881141186
1.58383846283 3.22930836678 0.441630959511
1.58186209202 3.25281906128 0.444118410349
1.55726754665 3.22973322868 0.440251082182
1.54712021351 3.23637986183 0.440447539091
1.53075957298 3.22994208336 0.438870429993
1.51970374584 3.23459219933 0.438807487488
1.49935126305 3.21927428246 0.436045020819
1.49393367767 3.23594617844 0.437622278929
1.47327792645 3.21952581406 0.434731185436
1.46345233917 3.22660183907 0.43502163887
1.45188748837 3.2298476696 0.434800505638
1.44197225571 3.2367670536 0.435078680515
1.43204021454 3.24368619919 0.435360908508
1.40903246403 3.22075581551 0.431646734476
1.40128052235 3.23250842094 0.432589709759
1.38538503647 3.2254319191 0.431018680334
1.37361061573 3.22782087326 0.430720061064
1.36538100243 3.23857593536 0.431541919708
1.34974563122 3.23171615601 0.430022418499
1.33768379688 3.23327732086 0.429630935192
1.32527303696 3.23393082619 0.42912492156
1.31431257725 3.23808455467 0.429088979959
1.30002474785 3.23395586014 0.427961856127
1.28196430206 3.22018480301 0.425568282604
1.27291965485 3.2289276123 0.426157265902
1.26289665699 3.23525261879 0.426430821419
1.25188934803 3.23907279968 0.426378697157
1.23116493225 3.21749091148 0.422991991043
1.22448718548 3.23246860504 0.424418926239
1.21628296375 3.24359750748 0.425342321396
1.20031225681 3.23394703865 0.423546731472
1.18996357918 3.23931670189 0.423725068569
1.17824482918 3.24094700813 0.423419177532
1.15894472599 3.22145438194 0.420362532139
1.1521730423 3.23665928841 0.42184010148
1.14257359505 3.24407863617 0.422305434942
1.12607884407 3.23178648949 0.420211434364
1.11362743378 3.23087406158 0.419604957104
1.10786926746 3.24949169159 0.421538114548
1.09079301357 3.23487472534 0.41916513443
1.075340271 3.22471737862 0.417379468679
1.06732964516 3.2368183136 0.418480157852
1.05424284935 3.23354363441 0.417597472668
1.04119932652 3.23024702072 0.416718512774
1.0295381546 3.23113059998 0.416384875774
1.01330709457 3.21744394302 0.414180964231
1.00391328335 3.22531938553 0.414759129286
0.996184706688 3.23871612549 0.416050046682
0.981678545475 3.23005533218 0.414512306452
0.972090303898 3.2374818325 0.415044754744
0.9574264884 3.22789883614 0.413402378559
0.947049260139 3.23262906075 0.413599193096
0.936180949211 3.23570132256 0.413588345051
0.91858035326 3.21520733833 0.410572826862
0.911351323128 3.23087620735 0.412181168795
0.896325111389 3.21887159348 0.410263985395
0.891264140606 3.24272966385 0.412921637297
0.87388831377 3.22174167633 0.409873664379
0.864822804928 3.23115921021 0.410700589418
0.853326141834 3.23154759407 0.410383969545
0.846996545792 3.25170469284 0.412580817938
0.827211797237 3.21996951103 0.408200055361
0.818487763405 3.23092198372 0.409238308668
0.807220876217 3.2319278717 0.409020632505
0.797084510326 3.2374765873 0.40938231349
0.779523313046 3.21251058578 0.405892580748
0.773736417294 3.23596906662 0.408526420593
0.762618601322 3.23742508888 0.408385127783
0.748160660267 3.22445201874 0.40642991662
0.737365543842 3.22702980042 0.40644094348
0.728962481022 3.24024415016 0.407795161009
0.71221113205 3.21610307693 0.404454112053
0.70389509201 3.22981071472 0.405878901482
0.693843066692 3.2357943058 0.406336188316
0.682205617428 3.23438262939 0.405869454145
0.671280443668 3.23628044128 0.405822873116
0.659177184105 3.23238873482 0.405055433512
0.646378338337 3.2248146534 0.40383246541
0.63541841507 3.22623181343 0.403740882874
0.62552857399 3.23315477371 0.404342502356
0.611736357212 3.21971487999 0.402402937412
0.603596448898 3.23600125313 0.404183208942
0.592393100262 3.2360932827 0.403944343328
0.577447354794 3.21527457237 0.401101738214
0.56880992651 3.22937631607 0.402620732784
0.557032823563 3.22578477859 0.401937872171
0.545496463776 3.22339272499 0.401409655809
0.534113168716 3.22174835205 0.4009796381
0.524164795876 3.22879743576 0.401635974646
0.513052642345 3.22875165939 0.401414036751
0.50461345911 3.24582099915 0.403323560953
0.491209596395 3.23092985153 0.401266306639
0.480090945959 3.23065280914 0.401029735804
0.46656703949 3.21371936798 0.398731321096
0.456590682268 3.22091794014 0.399432271719
0.445861965418 3.22295832634 0.399497658014
0.434550046921 3.22070384026 0.399035394192
0.425090253353 3.23234009743 0.400298237801
0.414029955864 3.23202586174 0.400085180998
0.402354627848 3.22668671608 0.399255007505
0.390663534403 3.22084164619 0.398367464542
0.38037198782 3.22645521164 0.39890179038
0.369300872087 3.22551774979 0.398630559444
0.358890473843 3.2303943634 0.399082273245
0.347350507975 3.225014925 0.398271590471
0.338043004274 3.24061107635 0.400055408478
0.324800878763 3.21819353104 0.39715129137
0.314287275076 3.22211694717 0.397503167391
0.304566144943 3.23466300964 0.398922741413
0.292118757963 3.21803498268 0.396749049425
0.282006382942 3.22676229477 0.397706210613
0.271515935659 3.23161578178 0.39818996191
0.261583358049 3.2437171936 0.399570733309
0.248973444104 3.22214961052 0.396808952093
0.238901659846 3.23288369179 0.398029983044
0.227140501142 3.22061371803 0.396423310041
0.216037839651 3.21684169769 0.395867615938
0.206231728196 3.23291921616 0.397758811712
0.194228589535 3.21435213089 0.395392090082
0.184493377805 3.23326396942 0.39764007926
0.173190608621 3.22527527809 0.396583944559
0.161737516522 3.21315574646 0.395024806261
0.151746243238 3.23034262657 0.397072970867
0.140649497509 3.22475361824 0.396325796843
0.130054920912 3.23062729836 0.396991848946
0.118730738759 3.21771788597 0.395354360342
0.108112417161 3.22318840027 0.395979762077
0.0972120761871 3.22045207024 0.395601332188
0.0866643637419 3.2300927639 0.396747648716
0.0761932879686 3.24567079544 0.398627460003
0.0649872198701 3.22982931137 0.396652847528
0.0542876683176 3.23777151108 0.39760363102
0.0433525592089 3.23203349113 0.396878898144
0.0326072797179 3.24124217033 0.397994041443
0.0216141939163 3.22260212898 0.395694106817
0.0107882544398 3.21638345718 0.394923865795
4.27591294283e-06 3.22273850441 0.395701944828
-0.0107987141237 3.22205090523 0.395619750023
-0.0215912312269 3.22045278549 0.39543017745
-0.0324874520302 3.23018288612 0.396636068821
-0.0433830060065 3.23494315147 0.397236198187
-0.0542200803757 3.23425269127 0.397171497345
-0.0646558478475 3.21378421783 0.394682347775
-0.0756226927042 3.22172880173 0.395686924458
-0.0868076086044 3.23575210571 0.397442758083
-0.0976539477706 3.23537516594 0.397434413433
-0.108668372035 3.24001979828 0.398047506809
-0.119257353246 3.23222231865 0.397136449814
-0.129867434502 3.22618317604 0.396445691586
-0.140754833817 3.22736549377 0.396646767855
-0.151949197054 3.23484611511 0.397626489401
-0.16237205267 3.22593212128 0.39659550786
-0.172719076276 3.21665358543 0.395523756742
-0.183881893754 3.22269797325 0.396340578794
-0.194843366742 3.22466850281 0.396661013365
-0.205466717482 3.22106122971 0.396299809217
-0.217153161764 3.23357725143 0.397927045822
-0.227934911847 3.23200011253 0.397824764252
-0.237792864442 3.2179954052 0.396196842194
-0.249417856336 3.2280125618 0.397530883551
-0.260988503695 3.23644804955 0.398675233126
-0.270605683327 3.2208840847 0.396867573261
-0.282168805599 3.22871947289 0.397947341204
-0.292355567217 3.22073864937 0.397082269192
-0.305005580187 3.2394220829 0.399509578943
-0.314571619034 3.22512054443 0.39787364006
-0.323947370052 3.20982193947 0.396118074656
-0.336308628321 3.22406768799 0.398013025522
-0.347563505173 3.22707295418 0.398525625467
-0.360477298498 3.24475622177 0.400856405497
-0.36913433671 3.22413897514 0.398460060358
-0.380708545446 3.22938394547 0.399263739586
-0.39076256752 3.2217297554 0.398477166891
-0.402826488018 3.23054051399 0.399731725454
-0.41303062439 3.22429275513 0.399127751589
-0.424152582884 3.22527623177 0.39942330122
-0.435403764248 3.22709584236 0.399827182293
-0.44582220912 3.22273421288 0.399469733238
-0.457724750042 3.22897982597 0.400431871414
-0.468070209026 3.22413349152 0.400023251772
-0.481085389853 3.23740386963 0.401867598295
-0.489167809486 3.21755743027 0.399605333805
-0.500703334808 3.2207262516 0.400205165148
-0.51202583313 3.22234487534 0.400617361069
-0.526067018509 3.2405693531 0.40310010314
-0.534127414227 3.2218875885 0.400996774435
-0.546870827675 3.23156619072 0.402427315712
-0.556637346745 3.2235455513 0.401658654213
-0.569881916046 3.23551297188 0.403385639191
-0.578028321266 3.21855854988 0.401511222124
-0.589204549789 3.21872329712 0.401775956154
-0.602145910263 3.22827219963 0.403217613697
-0.612954497337 3.22617292404 0.403209835291
-0.625438809395 3.23273682594 0.404290020466
-0.635772228241 3.22807359695 0.403971165419
-0.646746873856 3.22669768333 0.404068052769
-0.658534049988 3.22927880287 0.404665499926
-0.667766690254 3.21938347816 0.403703808784
-0.678498446941 3.21684908867 0.403668999672
-0.691637933254 3.22555208206 0.405049830675
-0.701106309891 3.21705532074 0.404275745153
-0.716509282589 3.23555254936 0.406899809837
-0.727105081081 3.23202800751 0.406760901213
-0.738837003708 3.23350906372 0.407256752253
-0.752211153507 3.24194788933 0.408634960651
-0.759177625179 3.22285604477 0.40654706955
-0.769913315773 3.22001791 0.406512379646
-0.783895254135 3.23056554794 0.408173471689
-0.790898919106 3.21238946915 0.406209766865
-0.806683897972 3.229814291 0.408752858639
-0.8147829175 3.21633315086 0.407390147448
-0.827843308449 3.22246336937 0.408515900373
-0.842460215092 3.23432445526 0.410375326872
-0.853282690048 3.23141765594 0.410367190838
-0.864262163639 3.22909879684 0.410438418388
-0.877133011818 3.23373770714 0.411399513483
-0.889867901802 3.2376832962 0.412278741598
-0.90188229084 3.23886179924 0.412811547518
-0.906390070915 3.21332025528 0.409941166639
-0.925691723824 3.24013113976 0.413755208254
-0.931903541088 3.22094941139 0.411702424288
-0.944941103458 3.22546505928 0.412682265043
-0.957028508186 3.22658848763 0.413234233856
-0.971019923687 3.23394823074 0.414591401815
-0.983814835548 3.23711538315 0.415417999029
-0.989699840546 3.21766352654 0.413345247507
-1.00275051594 3.22161388397 0.414282292128
-1.01629781723 3.22697019577 0.415406912565
-1.02797865868 3.22626614571 0.415757626295
-1.04210555553 3.23308801651 0.417084664106
-1.05484807491 3.23542928696 0.417840600014
-1.06584584713 3.23234701157 0.417901724577
-1.07570433617 3.22583794594 0.41752409935
-1.09017682076 3.23307585716 0.418931663036
-1.10004532337 3.22657108307 0.418564379215
-1.10810756683 3.2148873806 0.41752833128
-1.12813389301 3.23771190643 0.420981496572
-1.13637328148 3.22650122643 0.420016884804
-1.1504317522 3.23179459572 0.421205699444
-1.16279006004 3.23216986656 0.421760380268
-1.17219746113 3.22433900833 0.421249002218
-1.18833720684 3.23491621017 0.42314901948
-1.19491934776 3.21944355965 0.421646773815
-1.21537852287 3.24121189117 0.425029069185
-1.21689021587 3.21243929863 0.421788692474
-1.23116970062 3.21752905846 0.422996580601
-1.24660158157 3.22541689873 0.424580663443
-1.25833547115 3.22359323502 0.424893587828
-1.27407252789 3.23187708855 0.426546126604
-1.28021359444 3.21581196785 0.424989938736
-1.29648387432 3.22517251968 0.426799058914
-1.31318688393 3.23533582687 0.428724259138
-1.32727396488 3.23883795738 0.429775625467
-1.33849680424 3.23526668549 0.429894804955
-1.35256159306 3.2384827137 0.430922329426
-1.35855960846 3.22241997719 0.429388642311
-1.37489843369 3.23087072372 0.431126564741
-1.39063739777 3.23768401146 0.432655453682
-1.39593172073 3.22019290924 0.430941134691
-1.41146612167 3.22634196281 0.432394891977
-1.42612349987 3.23030757904 0.43356475234
-1.43449854851 3.22001385689 0.432826250792
-1.4514567852 3.22891235352 0.434674054384
-1.46612203121 3.23251080513 0.435817778111
-1.47864317894 3.23127293587 0.436316847801
-1.49138188362 3.23044133186 0.436877310276
-1.49872660637 3.21795535088 0.435865819454
-1.5159829855 3.22669529915 0.437735646963
-1.52721655369 3.2224881649 0.437857091427
-1.5441185236 3.23012280464 0.439595431089
-1.55666458607 3.22850489616 0.440083056688
-1.57502126694 3.2387740612 0.442200213671
-1.39576888084 -3.31067800522 0.569054841995
-1.38349986076 -3.31255936623 0.568577706814
-1.36857402325 -3.30796599388 0.56699848175
-1.35575079918 -3.30832767487 0.566278159618
-1.34302794933 -3.30885601044 0.565594673157
-1.33232700825 -3.31433677673 0.565764784813
-1.31608176231 -3.30591058731 0.563569962978
-1.3021914959 -3.30320501328 0.562361299992
-1.29241943359 -3.31090927124 0.56293207407
-1.27962827682 -3.31086921692 0.562192559242
-1.26446557045 -3.30454397202 0.560395538807
-1.25695049763 -3.31819367409 0.56199246645
-1.24021530151 -3.30744719505 0.559464931488
-1.23516368866 -3.32787251472 0.562216281891
-1.2230848074 -3.32950663567 0.561796367168
-1.20503437519 -3.31466293335 0.558606922626
-1.19175231457 -3.31267547607 0.557595431805
-1.18158376217 -3.31930708885 0.55804169178
-1.16787016392 -3.31593060493 0.556812644005
-1.15281379223 -3.30854249001 0.554919838905
-1.14472448826 -3.32112216949 0.556382894516
-1.12662017345 -3.30451846123 0.552965402603
-1.11610484123 -3.30996894836 0.553248167038
-1.10112607479 -3.30207300186 0.55130815506
-1.09788990021 -3.32952594757 0.555274009705
-1.07938432693 -3.31068682671 0.551525533199
-1.06547319889 -3.30558490753 0.55007737875
-1.05661380291 -3.31613636017 0.551240563393
-1.03794813156 -3.29571461678 0.547264277935
-1.03473830223 -3.32438349724 0.551445662975
-1.01691484451 -3.30614376068 0.547851443291
-1.01053440571 -3.32503271103 0.550416946411
-0.99398034811 -3.31041693687 0.547442734241
-0.979328095913 -3.30177092552 0.545466899872
-0.970521986485 -3.31278300285 0.546745479107
-0.956944108009 -3.30749750137 0.54534059763
-0.945822417736 -3.3105931282 0.545325040817
-0.934479773045 -3.31290364265 0.545186460018
-0.925472617149 -3.32358002663 0.546429693699
-0.910001277924 -3.31093621254 0.54384624958
-0.900869309902 -3.32124662399 0.545040607452
-0.886331856251 -3.31155657768 0.542959690094
-0.874073088169 -3.31015181541 0.542245805264
-0.861968100071 -3.30921792984 0.541616380215
-0.852547466755 -3.31862664223 0.542685389519
-0.837777376175 -3.30710315704 0.540338635445
-0.82913005352 -3.3196849823 0.541937053204
-0.814261376858 -3.30728077888 0.539463341236
-0.802055060863 -3.30540513992 0.538715779781
-0.792308151722 -3.31367993355 0.539628386497
-0.781290173531 -3.31672787666 0.5396951437
-0.770265340805 -3.31975960732 0.539765179157
-0.756499648094 -3.31080961227 0.537894546986
-0.746062219143 -3.31629371643 0.538376092911
-0.735390365124 -3.32081413269 0.538706719875
-0.72249931097 -3.3152179718 0.537402868271
-0.710052788258 -3.31143260002 0.536400318146
-0.69803160429 -3.30945825577 0.535698413849
-0.687870562077 -3.31630659103 0.536430597305
-0.675583422184 -3.31288456917 0.535507678986
-0.662734687328 -3.30646276474 0.534107446671
-0.654275774956 -3.32202363014 0.5362637043
-0.638683140278 -3.3011932373 0.532552421093
-0.62956649065 -3.31360721588 0.53421151638
-0.61827737093 -3.31475734711 0.534059762955
-0.607415258884 -3.3182053566 0.534284174442
-0.594471752644 -3.31011843681 0.532658100128
-0.58340293169 -3.31227874756 0.532687962055
-0.571814000607 -3.31143522263 0.532240986824
-0.561915516853 -3.32046794891 0.533387064934
-0.550575077534 -3.32110071182 0.533189177513
-0.537850379944 -3.31315469742 0.531620979309
-0.527699172497 -3.32098221779 0.532590031624
-0.51435226202 -3.30852150917 0.530312120914
-0.50205630064 -3.30233287811 0.529047369957
-0.491110295057 -3.30486512184 0.529186308384
-0.480489432812 -3.30967903137 0.529696166515
-0.471777707338 -3.32811498642 0.532390654087
-0.458141714334 -3.31178855896 0.529530227184
-0.447941839695 -3.32002472878 0.53060400486
-0.436051368713 -3.31575512886 0.529685020447
-0.426579117775 -3.33005809784 0.531738400459
-0.413441509008 -3.31566953659 0.529216527939
-0.401342779398 -3.30896067619 0.527927994728
-0.390671908855 -3.3138988018 0.528503894806
-0.38029563427 -3.32162547112 0.529529809952
-0.368470162153 -3.31670212746 0.528545022011
-0.355764210224 -3.30321502686 0.526202738285
-0.34610170126 -3.31795024872 0.528362214565
-0.333945184946 -3.3088850975 0.526737391949
-0.321920901537 -3.30046844482 0.52522277832
-0.312667697668 -3.32080030441 0.52828848362
-0.301140874624 -3.31752204895 0.527603387833
-0.289823621511 -3.31630969048 0.527253091335
-0.278017550707 -3.30910420418 0.525956332684
-0.267750352621 -3.3202996254 0.527590095997
-0.256714224815 -3.32244372368 0.527791082859
-0.245133653283 -3.3173365593 0.52684623003
-0.234479516745 -3.32479929924 0.527903616428
-0.2222571522 -3.30957961082 0.525365829468
-0.211642861366 -3.31788349152 0.526568353176
-0.200324863195 -3.31538748741 0.52606266737
-0.188979387283 -3.31203603745 0.525427401066
