7.77079391479 -5.45303487778 0.830546021461
7.77796840668 -5.41924095154 0.829366207123
7.80596065521 -5.39995765686 0.830415844917
7.83773994446 -5.38317775726 0.831871807575
7.84908485413 -5.35232782364 0.831166625023
7.89385509491 -5.34417152405 0.83400541544
7.92255735397 -5.32495307922 0.835146844387
7.94058656693 -5.29850721359 0.835170030594
7.97859811783 -5.28529548645 0.837299466133
7.98921537399 -5.25387334824 0.836560368538
8.02660083771 -5.23999357224 0.83863067627
8.05646419525 -5.22104930878 0.839917182922
8.08582210541 -5.2016620636 0.841154813766
8.10745811462 -5.17723083496 0.841595113277
8.14367485046 -5.1620016098 0.843553245068
8.16507911682 -5.13727521896 0.84398150444
8.1924200058 -5.11621665955 0.845029652119
8.23533535004 -5.10471725464 0.847686171532
8.25925636292 -5.08129310608 0.848390042782
8.28548336029 -5.05921220779 0.849336862564
8.31042098999 -5.03626585007 0.850157558918
8.33259010315 -5.01157999039 0.85070168972
8.35326862335 -4.98595571518 0.851101338863
8.40050983429 -4.97602939606 0.854209959507
8.4322052002 -4.95668792725 0.855738222599
8.46232795715 -4.93629312515 0.857110738754
8.48416042328 -4.91097784042 0.857649505138
8.51162052155 -4.88884687424 0.858763635159
8.54347991943 -4.86912441254 0.860325992107
8.56309890747 -4.84234237671 0.860661923885
8.59660625458 -4.82332229614 0.862399458885
8.61896038055 -4.79794073105 0.863023340702
8.64724731445 -4.7757806778 0.864247500896
8.69165897369 -4.76234912872 0.867085576057
8.72046756744 -4.74018716812 0.868369102478
8.73778152466 -4.71171522141 0.868515193462
8.77838039398 -4.69568586349 0.870980918407
8.80396366119 -4.67147397995 0.871960282326
8.84804439545 -4.65691280365 0.874774754047
8.85988426208 -4.62527704239 0.874407291412
8.88162231445 -4.59879684448 0.87502592802
8.929895401 -4.58589029312 0.878262102604
8.95513534546 -4.56097364426 0.879235506058
8.986784935 -4.53921127319 0.880843758583
9.02478694916 -4.52049207687 0.883078038692
10.9685430527 -5.4481883049 1.0714815855
10.9848871231 -5.41046571732 1.07130014896
10.9892292023 -5.36689662933 1.06996273994
11.006608963 -5.32975387573 1.06990897655
11.0358476639 -5.29830884933 1.0710183382
11.0480337143 -5.25865268707 1.07048392296
11.0601482391 -5.21900701523 1.06995618343
11.0646953583 -5.17586612701 1.06871128082
11.0861587524 -5.14067363739 1.06911361217
11.1041078568 -5.1038312912 1.0691883564
11.1014461517 -5.05759239197 1.06729316711
11.1104373932 -5.01677417755 1.0665345192
11.1332626343 -4.9822101593 1.06711602211
11.1425142288 -4.9415769577 1.0664087534
11.1580867767 -4.90378046036 1.06631958485
11.1702651978 -4.86451244354 1.06591880322
11.1909446716 -4.82894611359 1.06634116173
11.1908855438 -4.78447771072 1.06480109692
11.2140836716 -4.74998760223 1.06548702717
11.2080154419 -4.70315980911 1.06340622902
11.2321052551 -4.66903972626 1.06420052052
11.2397871017 -4.62809801102 1.0634522438
11.2577228546 -4.59139919281 1.06368672848
11.2551670074 -4.54640293121 1.06199896336
11.2737836838 -4.51001596451 1.062322855
11.3023891449 -4.47755861282 1.06359767914
11.3124685287 -4.437728405 1.06314003468
11.3279380798 -4.40002918243 1.06320142746
11.3301668167 -4.35723209381 1.06203353405
11.3476076126 -4.32032203674 1.06230449677
11.3512468338 -4.27818775177 1.06129646301
11.3773584366 -4.2445192337 1.06240129471
11.3826208115 -4.20306110382 1.06157076359
11.403635025 -4.16742658615 1.0622215271
11.4042406082 -4.12435817719 1.06098389626
6.36873960495 1.53408014774 0.573128342628
6.34421205521 1.55069541931 0.571385741234
6.30483961105 1.56349205971 0.568308651447
6.25171327591 1.57258605957 0.563991963863
6.20408391953 1.58274137974 0.560170769691
6.16935920715 1.59593248367 0.557515442371
6.1431479454 1.61114621162 0.555631816387
6.09753370285 1.6210526228 0.551994621754
6.04909420013 1.62990915775 0.548101127148
6.01914644241 1.64350581169 0.545883834362
5.96692609787 1.65076458454 0.541646778584
5.93117237091 1.66230130196 0.538904190063
5.90338134766 1.67588031292 0.536886572838
5.85685873032 1.68391299248 0.533166050911
5.83345651627 1.69838047028 0.531551063061
5.80421447754 1.71099758148 0.529406249523
5.7605676651 1.71914446354 0.525947988033
5.73646402359 1.73291838169 0.52427482605
5.7037730217 1.74393308163 0.521818518639
5.6574511528 1.75053310394 0.518114745617
5.61109113693 1.75682401657 0.514405608177
5.58993005753 1.77079939842 0.513007044792
5.56382274628 1.78307747841 0.511156857014
5.52874946594 1.79230010509 0.508483827114
5.48491573334 1.79843485355 0.505004167557
5.44783878326 1.80652952194 0.502145290375
5.41457509995 1.81567203999 0.499637573957
5.38011550903 1.82420623302 0.497019380331
5.36169672012 1.83802735806 0.495884329081
5.33184766769 1.84779548645 0.493693888187
5.29132556915 1.85364711285 0.490514546633
5.27337551117 1.86723268032 0.489428132772
5.2345957756 1.87327587605 0.486409127712
5.21974277496 1.88772654533 0.485614389181
5.18772888184 1.89584100246 0.483224630356
5.13922929764 1.89767313004 0.479296982288
5.12724351883 1.91280627251 0.478774577379
5.0931019783 1.91954660416 0.476184815168
5.06365823746 1.92786324024 0.474033623934
5.02469015121 1.93234050274 0.470989465714
5.00477647781 1.94396913052 0.46973118186
4.9754691124 1.95180916786 0.467592030764
4.95962810516 1.96480810642 0.466719806194
4.92182159424 1.96894788742 0.46378070116
4.90575695038 1.98162746429 0.462890416384
4.86839962006 1.98554933071 0.459991037846
4.84372234344 1.99445235729 0.458288669586
4.81372833252 2.00100421906 0.456082999706
4.78407669067 2.00751638412 0.453908771276
4.77204179764 2.0213098526 0.453407377005
4.72642087936 2.0207028389 0.449714004993
4.71730518341 2.03553962708 0.44949349761
4.69017648697 2.04251384735 0.447558522224
4.64665269852 2.04212093353 0.444056123495
4.62941360474 2.05309176445 0.443064063787
4.60748720169 2.06188154221 0.441624701023
4.58987188339 2.07249712944 0.440599828959
4.55875110626 2.07687401772 0.438278406858
4.53754138947 2.08561062813 0.436909139156
4.51511526108 2.09366774559 0.435423225164
4.48360061646 2.09734773636 0.433059751987
4.46163892746 2.10533571243 0.43161791563
4.44622898102 2.11631989479 0.430811196566
4.41881418228 2.12147212029 0.428841650486
4.40113210678 2.13116979599 0.427816689014
4.36506891251 2.13180327415 0.425003528595
4.34070110321 2.1379570961 0.423326522112
4.32847070694 2.14999604225 0.42283436656
4.30835533142 2.15804362297 0.421573787928
4.27523994446 2.15941691399 0.419039547443
4.25086116791 2.16502213478 0.4173592031
4.24075460434 2.17781233788 0.41708150506
4.19941186905 2.17440485954 0.413730084896
4.19397497177 2.18945240974 0.413915336132
4.1713385582 2.1954638958 0.412405461073
4.14731693268 2.20060920715 0.410757660866
4.12590789795 2.20700907707 0.409367859364
4.10924530029 2.21584796906 0.408449470997
4.08954334259 2.22295427322 0.407229661942
4.05108070374 2.21967506409 0.404138416052
4.02689981461 2.22401332855 0.402467787266
4.00697946548 2.2305765152 0.40122205019
4.01426553726 2.25229525566 0.402705460787
3.97238779068 2.24634337425 0.399257689714
3.96123027802 2.25759577751 0.398894786835
3.93587994576 2.26066422462 0.397103071213
3.90871143341 2.26252150536 0.395125061274
3.8924767971 2.27058172226 0.394251286983
3.87855648994 2.27992486954 0.393613427877
3.85514521599 2.2835893631 0.392012327909
3.84760928154 2.29658699036 0.392026811838
3.82660150528 2.30148363113 0.390670388937
3.80691313744 2.30705833435 0.38944786787
3.77294397354 2.30380344391 0.386760830879
3.75285696983 2.30884766579 0.385493099689
3.7407913208 2.31874990463 0.385050147772
3.72843384743 2.32842993736 0.384579598904
3.70925116539 2.33377337456 0.383405864239
3.68562197685 2.33619189262 0.381770938635
3.67418885231 2.34625005722 0.381399363279
3.64216160774 2.34302639961 0.378888130188
3.63095736504 2.35306787491 0.378541141748
3.61693263054 2.36123657227 0.377902269363
3.60502576828 2.37073945999 0.377486556768
3.58819651604 2.37694382668 0.376556754112
3.56547188759 2.37912869453 0.375006943941
3.54414820671 2.38211250305 0.373602122068
3.52669048309 2.38758349419 0.372603595257
3.52074956894 2.40081548691 0.372824281454
3.48382496834 2.39278793335 0.369761675596
3.46767520905 2.39884638786 0.368899166584
3.45108914375 2.40452051163 0.367990285158
3.43443918228 2.41006493568 0.367074459791
3.41841983795 2.41596913338 0.366225987673
3.41611671448 2.43155694008 0.366850614548
3.37519073486 2.41951704025 0.363324761391
3.36253261566 2.42755150795 0.362836271524
3.35200047493 2.43708562851 0.362579494715
3.33050465584 2.43856835365 0.361136704683
3.33140230179 2.45642542839 0.362125039101
3.295835495 2.44730067253 0.359148800373
3.28312134743 2.45497965813 0.358658283949
3.266726017 2.45983958244 0.357766151428
3.24843072891 2.46317338943 0.356664955616
3.24191689491 2.47539710999 0.356859028339
3.22104120255 2.47659730911 0.355473130941
3.20124435425 2.47849845886 0.354203462601
3.19332075119 2.48953294754 0.354248315096
3.18162059784 2.49760723114 0.353877335787
3.14876079559 2.48891997337 0.351148694754
3.1368329525 2.49662566185 0.350750029087
3.12499165535 2.50436162949 0.350362926722
3.11441111565 2.51307702065 0.350119352341
3.09042406082 2.51087617874 0.348367214203
3.08351230621 2.52247047424 0.348539501429
3.0725338459 2.53073239326 0.348255693913
3.04912257195 2.52865576744 0.346561163664
3.02975559235 2.5297870636 0.345322042704
3.02186226845 2.54044008255 0.345391243696
3.00006484985 2.53933167458 0.343871057034
3.00194525719 2.55824828148 0.345067799091
2.97446370125 2.55209350586 0.342890501022
2.95938372612 2.55643129349 0.342138260603
2.95098471642 2.56650352478 0.342160135508
2.92721843719 2.56312227249 0.340399026871
2.9221405983 2.57603621483 0.340810984373
2.90295910835 2.57647514343 0.339579463005
2.88890147209 2.58136582375 0.338945537806
2.87942624092 2.59031391144 0.338850915432
2.85149431229 2.58253645897 0.336580961943
2.8449075222 2.59398651123 0.336828172207
2.83442592621 2.60188698769 0.336618155241
2.82738447189 2.61294484138 0.336820453405
2.80606555939 2.61074066162 0.335321635008
2.78506875038 2.6086807251 0.333855867386
2.7766327858 2.6183116436 0.333895087242
2.7564163208 2.61676287651 0.332517176867
2.74655508995 2.62496519089 0.332387447357
2.73712611198 2.63356971741 0.33231306076
2.71177816391 2.62674665451 0.330302983522
2.69871115685 2.63168478012 0.329784274101
2.67802500725 2.6290872097 0.328331768513
2.66888380051 2.63774371147 0.328293442726
2.6544008255 2.64108109474 0.327599316835
2.63905286789 2.64347720146 0.326797157526
2.64222931862 2.66446638107 0.32829490304
2.62467455864 2.66457295418 0.327221930027
2.60404515266 2.66141986847 0.325760662556
2.58965134621 2.6645219326 0.325075775385
2.5797522068 2.67220473289 0.324955999851
2.57037806511 2.68042159081 0.324905395508
2.55379009247 2.68106007576 0.323943078518
2.53838062286 2.68283677101 0.323127627373
2.52563047409 2.68735194206 0.322649717331
2.52126049995 2.70079088211 0.323246449232
2.5049200058 2.7013874054 0.322310864925
2.49049687386 2.70396018028 0.321619749069
2.47810292244 2.70867276192 0.321190208197
2.45522618294 2.70180106163 0.319397449493
2.44164586067 2.70502352715 0.318808823824
2.434217453 2.71504020691 0.319025695324
2.4167163372 2.71377158165 0.317922711372
2.40695500374 2.72112560272 0.317837029696
2.38641357422 2.71619963646 0.316325306892
2.3807284832 2.72812223434 0.316782414913
2.3814458847 2.74748492241 0.318101853132
2.36227607727 2.74390292168 0.316768318415
2.34305977821 2.74010920525 0.315421670675
2.3313934803 2.74504613876 0.315088391304
2.31969571114 2.74990606308 0.31475174427
2.30505514145 2.7512140274 0.314015090466
2.30063176155 2.76471161842 0.314673483372
2.2894423008 2.77010250092 0.314411610365
2.26970934868 2.76505374908 0.312973082066
2.25441932678 2.76528048515 0.312141418457
2.24842977524 2.77689242363 0.31259945035
2.2249815464 2.76685023308 0.31062746048
2.21952533722 2.77909398079 0.311164826155
2.20737266541 2.78296160698 0.31076747179
2.19573354721 2.78743219376 0.310442864895
2.18484902382 2.79282712936 0.310226112604
2.17071580887 2.79401397705 0.309547752142
2.15142440796 2.78842997551 0.308128207922
2.14159107208 2.7950117588 0.308060318232
2.1369805336 2.80844855309 0.308749884367
2.13473010063 2.82509660721 0.309791475534
2.11000156403 2.81192231178 0.307569354773
2.10030651093 2.81863808632 0.307531952858
2.09308028221 2.82868599892 0.307860821486
2.07801222801 2.82810425758 0.307037502527
2.07111930847 2.83862018585 0.307423532009
2.05072617531 2.83055305481 0.305803507566
2.04043745995 2.83631896973 0.305685609579
2.02069950104 2.82884120941 0.304147809744
2.01775884628 2.84484267235 0.305139154196
2.001496315 2.84205985069 0.30411913991
1.99933993816 2.85931420326 0.305246442556
1.97803211212 2.84913468361 0.303450018167
1.9661128521 2.85233330727 0.303086906672
1.95420563221 2.85550069809 0.302725553513
1.94922792912 2.86881732941 0.303442746401
1.93381726742 2.86676645279 0.302538335323
1.92073202133 2.86806368828 0.301993906498
1.91268205643 2.87685918808 0.302243083715
1.90484035015 2.88600516319 0.302531272173
1.89153265953 2.8868496418 0.301953285933
1.87823534012 2.88762879372 0.301374435425
1.86092281342 2.88210821152 0.300145357847
1.8517049551 2.88904237747 0.300219267607
1.84701263905 2.90310049057 0.301034927368
1.82788074017 2.89441108704 0.2994967103
1.82311749458 2.90842247009 0.300312310457
1.81234812737 2.91289901733 0.300145447254
1.80150413513 2.91723060608 0.299967706203
1.78772723675 2.91675138474 0.299300402403
1.7724159956 2.91365122795 0.298370808363
1.76419353485 2.92215561867 0.298634290695
1.74781918526 2.91709399223 0.297516465187
1.74193549156 2.92950773239 0.298185199499
1.72930121422 2.93058252335 0.297702759504
1.72413766384 2.94434213638 0.298511624336
1.71512806416 2.95160698891 0.298663437366
1.69325876236 2.93659281731 0.296568095684
1.68771505356 2.94978928566 0.297327667475
1.67706131935 2.95410275459 0.297194033861
1.65912103653 2.94545984268 0.295763224363
1.6558161974 2.96277999878 0.296943247318
1.64512455463 2.96696448326 0.296808153391
1.6394225359 2.98019838333 0.297580510378
1.61938464642 2.96728777885 0.295747518539
1.60670399666 2.96767139435 0.295247167349
1.59965467453 2.97845935822 0.295785218477
1.58444190025 2.9740126133 0.294814378023
1.57184839249 2.97436308861 0.29432502389
1.56420183182 2.98407053947 0.294764995575
1.55435323715 2.98961591721 0.294796347618
1.54641842842 2.99887824059 0.295196741819
1.53241050243 2.99633359909 0.294438838959
1.5210365057 2.99885344505 0.294183671474
1.51101505756 3.00401926041 0.294191807508
1.49653077126 3.00023961067 0.293328613043
1.49189245701 3.01621699333 0.294400006533
1.480265975 3.01813292503 0.294100910425
1.4644575119 3.01139736176 0.292964488268
1.45623242855 3.02018904686 0.293343126774
1.44956469536 3.03230619431 0.294046342373
1.42929530144 3.0158495903 0.291984170675
1.4248470068 3.03269600868 0.293150991201
1.41427433491 3.03660464287 0.293068826199
1.4033614397 3.03976154327 0.292917728424
1.38847732544 3.03421258926 0.291932791471
1.38360762596 3.05056118965 0.293057769537
1.37007772923 3.04785490036 0.292354851961
1.35839259624 3.04915714264 0.292041271925
1.34745800495 3.05210065842 0.291888833046
1.33280897141 3.04652452469 0.290926575661
1.3272870779 3.06181836128 0.291960418224
1.31316876411 3.05729913712 0.291108042002
1.30234646797 3.06035852432 0.290981918573
1.29449987411 3.07045149803 0.291527241468
1.28692996502 3.08131599426 0.292147487402
1.27022504807 3.07022476196 0.29069045186
1.2590239048 3.07226991653 0.290482789278
1.25332486629 3.08782863617 0.291554927826
1.23832297325 3.08046603203 0.290466070175
1.23459517956 3.10119771957 0.292028963566
1.22412252426 3.10514712334 0.292012751102
1.20845866203 3.09579491615 0.290750592947
1.19369053841 3.08849215508 0.289687216282
1.18915998936 3.10771632195 0.291114777327
1.17448091507 3.10045933723 0.290064454079
1.16479372978 3.10628533363 0.290242493153
1.15224158764 3.10443258286 0.289706766605
1.14598047733 3.11958599091 0.290760695934
1.1347193718 3.12122321129 0.290557056665
1.12691402435 3.13242030144 0.291246056557
1.11260211468 3.12549734116 0.29025387764
1.10103929043 3.12615132332 0.289970159531
1.08816850185 3.12298560143 0.289336502552
1.0831001997 3.14230799675 0.290788590908
1.06888008118 3.13513231277 0.289791285992
1.06187355518 3.14911079407 0.290752649307
1.04987764359 3.1483604908 0.290356725454
1.04035973549 3.1550283432 0.290648341179
1.02741241455 3.1512503624 0.289981335402
1.01307630539 3.14299702644 0.288907676935
1.01056170464 3.17157459259 0.291221469641
0.992806851864 3.15235185623 0.289149105549
0.984337151051 3.16242623329 0.289768815041
0.974489629269 3.16818284988 0.289995282888
0.966960668564 3.18162870407 0.290927648544
0.954959511757 3.18042874336 0.290523529053
0.94403898716 3.18276405334 0.290446072817
0.933401763439 3.18604540825 0.290458291769
0.919053852558 3.17650532722 0.289306014776
0.909077465534 3.18194556236 0.289522260427
0.901758134365 3.19686698914 0.290603220463
0.892721831799 3.20593166351 0.291153490543
0.880198359489 3.20246839523 0.290569335222
0.869251966476 3.20464897156 0.290501117706
0.859458446503 3.21111702919 0.290824592113
0.847412884235 3.20915412903 0.290387839079
0.840114951134 3.22528553009 0.291591018438
0.823229014874 3.20446634293 0.289457648993
0.816122949123 3.22158694267 0.290755331516
0.803659915924 3.21767067909 0.290157079697
0.796410322189 3.2347381115 0.291453719139
0.783630490303 3.22943711281 0.290737718344
0.770581543446 3.22277474403 0.289903700352
0.762663662434 3.237616539 0.291007101536
0.751774072647 3.24002504349 0.290995419025
0.744394004345 3.25778961182 0.29236510396
0.730114400387 3.24536466599 0.29102870822
0.71888756752 3.24625134468 0.290890455246
0.708825528622 3.25243401527 0.291229873896
0.696457743645 3.24798798561 0.290621042252
0.68807220459 3.26219654083 0.29168432951
0.678919494152 3.27310872078 0.292454838753
0.666450381279 3.2680542469 0.291801929474
0.655752837658 3.27158427238 0.29191917181
0.644561350346 3.27265357971 0.291820108891
0.635232031345 3.28330874443 0.2925786376
0.624578654766 3.287307024 0.292746692896
0.611912310123 3.28058409691 0.291963666677
0.600199759007 3.27873921394 0.291618704796
0.589734137058 3.28368854523 0.291881412268
0.578616380692 3.28505206108 0.291828542948
0.567551136017 3.28669643402 0.291803926229
0.558706521988 3.3014523983 0.29294604063
0.548536598682 3.30875015259 0.293428778648
0.536978423595 3.30772805214 0.293176800013
0.526464223862 3.31315374374 0.293499588966
0.516932487488 3.325060606 0.29439920187
0.504084587097 3.31561517715 0.293411612511
0.493195086718 3.31883382797 0.293548464775
0.482001543045 3.32003259659 0.29350990057
0.47280049324 3.33526659012 0.294714897871
0.461455285549 3.33567619324 0.294612705708
0.448190420866 3.32180047035 0.293252825737
0.438583016396 3.33493733406 0.294281065464
0.429649740458 3.35395789146 0.295830726624
0.415056139231 3.32854628563 0.293464928865
0.405491381884 3.34309053421 0.29462569952
0.39504724741 3.35093641281 0.295198768377
0.384109854698 3.35486125946 0.29542940855
0.372117489576 3.34945178032 0.294841527939
0.362410336733 3.36483955383 0.296087443829
0.351360797882 3.36828041077 0.296284884214
0.341975927353 3.38836765289 0.297949284315
0.3287525177 3.37041640282 0.296272218227
0.318907976151 3.38698101044 0.29763263464
0.307651907206 3.38915085793 0.297730982304
0.296652495861 3.39434552193 0.298098266125
0.28449228406 3.38606190681 0.297285348177
0.272994875908 3.38522386551 0.297129750252
0.262376636267 3.39561009407 0.297962486744
0.251772999763 3.40706205368 0.298891633749
0.240171507001 3.40537977219 0.298671752214
0.227939531207 3.39405989647 0.297610193491
0.217804089189 3.41432929039 0.299321830273
0.20614092052 3.41149330139 0.299010932446
0.195140972733 3.4198641777 0.29968559742
0.183720812201 3.42137598991 0.299762427807
0.172022804618 3.41748809814 0.299369543791
0.161095589399 3.42936944962 0.30036136508
0.149375125766 3.4248111248 0.299916565418
0.138091415167 3.43025779724 0.300351291895
0.127348482609 3.45126676559 0.3021517694
0.115690767765 3.44912409782 0.3019284904
0.103846669197 3.44024348259 0.301118969917
0.0925564095378 3.44969701767 0.301917552948
0.0813119634986 3.46371507645 0.303118854761
0.0694781914353 3.45302796364 0.302161484957
0.0578430779278 3.44981980324 0.301862090826
0.0465385392308 3.46955561638 0.303573638201
0.0348010919988 3.45931243896 0.302665472031
0.023370238021 3.48442220688 0.304853856564
0.0116317989305 3.46787571907 0.303401082754
4.61955278297e-06 3.48173856735 0.304612189531
-0.0116724185646 3.48274111748 0.304701626301
-0.0233707651496 3.48588013649 0.304981410503
-0.0351761765778 3.49751901627 0.306008279324
-0.0468104183674 3.4905154705 0.305407524109
-0.0586396455765 3.49788165092 0.30606752634
-0.0706522166729 3.51183962822 0.307307869196
-0.0822190269828 3.50275039673 0.306534916162
-0.0940002426505 3.50385713577 0.306657612324
-0.105783969164 3.50473093987 0.306763410568
-0.117829352617 3.51316046715 0.307534098625
-0.129888266325 3.52035117149 0.308199942112
-0.1420096457 3.52782154083 0.308893889189
-0.153653100133 3.52310943604 0.308524698019
-0.165798336267 3.52968049049 0.309147059917
-0.178392618895 3.5442211628 0.310471266508
-0.190148860216 3.54125928879 0.310265898705
-0.202023684978 3.54064941406 0.31027007103
-0.214070335031 3.54287576675 0.310526311398
-0.22660535574 3.55244755745 0.311430096626
-0.238862589002 3.55684733391 0.311884254217
-0.250935941935 3.55814266205 0.312069863081
-0.263195306063 3.5617609024 0.312462836504
-0.275560796261 3.56635951996 0.312945574522
-0.287792384624 3.5688354969 0.313245743513
-0.300729244947 3.57942986488 0.314262390137
-0.313705682755 3.58958077431 0.315244168043
-0.326342374086 3.59515476227 0.315827995539
-0.338049799204 3.5903801918 0.315506339073
-0.350452810526 3.59298968315 0.315837144852
-0.361823290586 3.58511447906 0.315249741077
-0.374823898077 3.59329915047 0.316078186035
-0.388179987669 3.60419082642 0.317148953676
-0.401056408882 3.61001992226 0.317778408527
-0.413820117712 3.61443924904 0.318287789822
-0.426645100117 3.61904358864 0.318817406893
-0.438929498196 3.61885261536 0.318928450346
-0.453780680895 3.63917684555 0.320851892233
-0.465002715588 3.63000893593 0.320179253817
-0.478839725256 3.64111971855 0.32129907608
-0.491336554289 3.64165472984 0.321489840746
-2.27531147003 -2.7909219265 0.442130982876
-2.25683116913 -2.78728365898 0.440353423357
-2.23906826973 -2.78438282013 0.438706636429
-2.23064756393 -2.7930355072 0.438889086246
-2.21390032768 -2.7912068367 0.437432855368
-2.20786619186 -2.80284976959 0.43809491396
-2.2009665966 -2.81344532967 0.438595145941
-2.1904232502 -2.81939578056 0.438375413418
-2.17132878304 -2.81424355507 0.43643990159
-2.15867328644 -2.81732130051 0.43579235673
-2.14605855942 -2.82039451599 0.435152292252
-2.13587880135 -2.82663249969 0.435007363558
-2.12134695053 -2.8270573616 0.433975756168
-2.10848116875 -2.82962441444 0.433282136917
-2.09824872017 -2.83568668365 0.433130770922
-2.08612585068 -2.83916258812 0.432590901852
-2.07018375397 -2.83735370636 0.431255310774
-2.0688996315 -2.85565328598 0.432979941368
-2.04985976219 -2.84943223 0.430992215872
-2.03789997101 -2.85293674469 0.430486381054
-2.03871703148 -2.87440800667 0.432692378759
-2.00671768188 -2.84948992729 0.427926182747
-1.99609470367 -2.85468912125 0.427699506283
-1.99657261372 -2.87585639954 0.429865509272
-1.98238503933 -2.87595653534 0.42888456583
-1.97905170918 -2.8918223381 0.430258631706
-1.96007740498 -2.88480186462 0.428233891726
-1.94730508327 -2.88677787781 0.427555650473
-1.92979180813 -2.88160824776 0.425829291344
-1.92353188992 -2.89319515228 0.426586091518
-1.91113233566 -2.89555478096 0.425986856222
-1.90214395523 -2.90306138992 0.426150530577
-1.89233124256 -2.9093170166 0.426135092974
-1.87247240543 -2.90001225471 0.423850268126
-1.86228513718 -2.90556645393 0.423747062683
-1.85397267342 -2.91405725479 0.424076408148
-1.84849083424 -2.92706394196 0.425064951181
-1.82447659969 -2.91060781479 0.421784490347
-1.81583440304 -2.91851949692 0.422046363354
-1.80556213856 -2.92381930351 0.421934962273
-1.7955943346 -2.9296040535 0.421898603439
-1.78490865231 -2.93420553207 0.421697050333
-1.77238070965 -2.935734272 0.421060353518
-1.76643610001 -2.94818329811 0.421994060278
-1.75614845753 -2.95342803001 0.421899616718
-1.74726116657 -2.96103620529 0.422147214413
-1.7384980917 -2.96888375282 0.422432631254
-1.72711503506 -2.97225356102 0.422085791826
-1.70747673512 -2.96126890182 0.41971051693
-1.69383895397 -2.96051073074 0.418795794249
-1.68315804005 -2.9648604393 0.418610423803
-1.67389369011 -2.97170448303 0.418781995773
-1.66649901867 -2.98191332817 0.419430881739
-1.65473175049 -2.98430967331 0.418985247612
-1.63975441456 -2.9808204174 0.417721122503
-1.62799096107 -2.98307609558 0.417269974947
-1.62112534046 -2.99432730675 0.418081134558
-1.60064315796 -2.98031878471 0.415373563766
-1.60122847557 -3.00554013252 0.418138116598
-1.5843000412 -2.99794435501 0.416340023279
-1.5785369873 -3.0114376545 0.417476534843
-1.56768751144 -3.01528263092 0.417278558016
-1.55350446701 -3.01263952255 0.41618964076
-1.54494166374 -3.02085542679 0.416606724262
-1.53087508678 -3.01827096939 0.415540099144
-1.51891088486 -3.01973676682 0.415038466454
-1.50985717773 -3.02697634697 0.415335386992
-1.49785208702 -3.02828621864 0.414823651314
-1.48875999451 -3.0354719162 0.415121912956
-1.47240674496 -3.02776384354 0.413390308619
-1.47150802612 -3.05189108849 0.416008532047
-1.45636475086 -3.04655170441 0.414612799883
-1.44492578506 -3.0488512516 0.414264082909
-1.43102574348 -3.04586791992 0.413204491138
-1.42157673836 -3.05230474472 0.413428753614
-1.40737438202 -3.04847502708 0.412268579006
-1.40076756477 -3.06109189987 0.413337379694
-1.3870061636 -3.05807566643 0.412299871445
-1.37764394283 -3.06470823288 0.412569016218
-1.36583387852 -3.06588244438 0.412108302116
-1.36023581028 -3.08106541634 0.413533806801
-1.33907210827 -3.06086301804 0.410217374563
-1.33805704117 -3.08668518066 0.413074493408
-1.32523798943 -3.08542084694 0.412308365107
-1.31338322163 -3.0863161087 0.411837249994
-1.30865192413 -3.10404205322 0.413614749908
-1.29447090626 -3.09939432144 0.4124147892
-1.28265058994 -3.10028147697 0.411958277225
-1.27302122116 -3.10644960403 0.41220843792
-1.26254713535 -3.11057329178 0.412191569805
-1.25558960438 -3.12344241142 0.413336753845
-1.23686635494 -3.10692667961 0.410600066185
-1.22959673405 -3.11905741692 0.411656081676
-1.21807825565 -3.1204624176 0.411300182343
-1.20402741432 -3.11526179314 0.410080313683
-1.19780528545 -3.13033461571 0.41153344512
-1.18243873119 -3.12149167061 0.409847408533
-1.17421483994 -3.13143491745 0.410633713007
-1.1637301445 -3.13541102409 0.410641133785
-1.15075874329 -3.13261914253 0.409767866135
-1.14050269127 -3.13715720177 0.409859001637
-1.13021695614 -3.14162755013 0.40994566679
-1.11911153793 -3.1438100338 0.409738510847
-1.10932576656 -3.14970564842 0.41001984477
-1.09647476673 -3.14685082436 0.409167349339
-1.08817601204 -3.15706110001 0.410018235445
-1.07588577271 -3.15570807457 0.409371733665
-1.06856608391 -3.16898608208 0.410627126694
-1.059248209 -3.17648887634 0.411136806011
-1.05018126965 -3.18484187126 0.411759883165
-1.03807413578 -3.18398022652 0.41119620204
-1.0261695385 -3.18364691734 0.410706549883
-1.01754355431 -3.19351577759 0.411537200212
-1.00843346119 -3.20199918747 0.41219240427
-0.994579434395 -3.19536185265 0.410906434059
-0.98246383667 -3.19413805008 0.410323143005
-0.968722164631 -3.18745493889 0.40904507041
-0.965818583965 -3.21662521362 0.412370622158
-0.949659943581 -3.20174574852 0.410052597523
-0.941546678543 -3.21387839317 0.411199808121
-0.92568063736 -3.19944119453 0.408953249454
-0.915859997272 -3.20571780205 0.409360736609
-0.906690478325 -3.21438550949 0.410077065229
-0.896416723728 -3.2192337513 0.41030985117
-0.888525426388 -3.23279881477 0.41165676713
-0.872273683548 -3.21582269669 0.409120351076
-0.863037705421 -3.22452402115 0.409856915474
-0.856209814548 -3.24250292778 0.41177496314
-0.841325879097 -3.2299695015 0.409822762012
-0.835059463978 -3.25055265427 0.412076830864
-0.821326315403 -3.2421631813 0.410661876202
-0.811854600906 -3.2505171299 0.411372900009
-0.801586925983 -3.25580096245 0.411699175835
-0.789466440678 -3.25352525711 0.411074399948
-0.777115225792 -3.25013828278 0.410314947367
-0.767394125462 -3.25773644447 0.410947054625
-0.757587373257 -3.26511907578 0.411555588245
-0.74247610569 -3.24943566322 0.409262686968
-0.734286546707 -3.26395010948 0.41077837348
-0.725203990936 -3.27481555939 0.411837488413
-0.715639948845 -3.28374361992 0.412656217813
-0.70478862524 -3.28688240051 0.412751376629
-0.691524088383 -3.27860546112 0.411418527365
-0.683474242687 -3.29511141777 0.413199931383
-0.671038925648 -3.290599823 0.41234973073
-0.657954394817 -3.28261327744 0.411070168018
-0.649727940559 -3.29893231392 0.412838637829
-0.636910140514 -3.29202890396 0.411705166101
-0.626508176327 -3.29751038551 0.41212567687
-0.618624389172 -3.3166179657 0.414252191782
-0.6070073843 -3.31597709656 0.413915634155
-0.594413042068 -3.30979132652 0.412892401218
-0.581991374493 -3.30426454544 0.411957204342
-0.573401629925 -3.32062935829 0.413755446672
-0.565229535103 -3.34005141258 0.415937006474
-0.550478518009 -3.32051825523 0.413272351027
-0.541454493999 -3.3353562355 0.414890825748
-0.530468285084 -3.33840918541 0.41504701972
-0.520572245121 -3.34853124619 0.416086107492
-0.507990002632 -3.34136247635 0.414981335402
-0.496537983418 -3.3413901329 0.414775699377
-0.48668012023 -3.35232114792 0.415927708149
-0.474482297897 -3.34719443321 0.415091902018
-0.464206546545 -3.35562968254 0.415942639112
-0.452576637268 -3.35437655449 0.415596872568
-0.441116303205 -3.35426926613 0.415398001671
-0.431951791048 -3.37199926376 0.417412012815
-0.420646309853 -3.3734498024 0.417414665222
-0.408357292414 -3.36679339409 0.416419237852
-0.398096978664 -3.37688231468 0.417499661446
-0.38802421093 -3.38912916183 0.418850600719
-0.374822854996 -3.37388443947 0.416808903217
-0.365054100752 -3.38947033882 0.418580830097
-0.353738635778 -3.3911626339 0.418641000986
-0.341002762318 -3.3788151741 0.416973173618
-0.330592393875 -3.38937234879 0.418136894703
-0.319562971592 -3.39403390884 0.418577462435
-0.308706820011 -3.40087246895 0.419290810823
-0.29808601737 -3.41085243225 0.420395672321
-0.284903079271 -3.39105892181 0.417835980654
-0.274996906519 -3.4101626873 0.420073896646
-0.26312944293 -3.40547060966 0.419384896755
-0.252919584513 -3.42270183563 0.421400129795
-0.240613281727 -3.41177296638 0.419952899218
-0.229921922088 -3.4237139225 0.421325445175
-0.219823151827 -3.44612455368 0.423990219831
-0.20713429153 -3.42808413506 0.421682834625
-0.195741504431 -3.43054842949 0.421902865171
-0.185153886676 -3.44823455811 0.423999249935
-0.173514202237 -3.4472990036 0.423810303211
-0.161667823792 -3.44174599648 0.423058599234
-0.150438725948 -3.44940710068 0.42393592
-0.139263376594 -3.45959830284 0.425128638744
-0.127530410886 -3.45644617081 0.42468637228
-0.115764513612 -3.45159602165 0.424040347338
-0.104805700481 -3.4723200798 0.426540821791
-0.0931267663836 -3.47129821777 0.426374554634
-0.0818587765098 -3.48740291595 0.428316533566
-0.0698818340898 -3.47354698181 0.426583588123
-0.0585120916367 -3.49027299881 0.428611218929
-0.0466992855072 -3.48222851753 0.427601724863
-0.0350698083639 -3.48694324493 0.428163796663
-0.0233164783567 -3.47778296471 0.427027016878
-0.0117160826921 -3.49576950073 0.429228276014
4.65038283437e-06 -3.50497484207 0.430356144905
0.0117547223344 -3.50452375412 0.430303186178
0.0235797185451 -3.51565504074 0.431677222252
0.0352766700089 -3.50658607483 0.430575758219
0.0471212044358 -3.51299452782 0.431379646063
0.058970477432 -3.51705884933 0.431900590658
0.0708625465631 -3.52182984352 0.432513207197
0.0827864035964 -3.52652335167 0.433121263981
0.094872944057 -3.53603720665 0.434326350689
0.106878265738 -3.54067468643 0.434937566519
0.118169777095 -3.52303147316 0.432816505432
0.130438908935 -3.53502035141 0.434340655804
0.142879262567 -3.54919028282 0.436138093472
0.154729038477 -3.54756355286 0.435999512672
0.166575953364 -3.54603409767 0.435877710581
0.178843602538 -3.55299329758 0.436804383993
0.190406605601 -3.54588341713 0.436006337404
0.203089416027 -3.55916118622 0.437720268965
0.215380638838 -3.56440424919 0.43845140934
0.226320073009 -3.5478272438 0.436503171921
0.240144237876 -3.57578992844 0.440040141344
0.251620173454 -3.56770992279 0.439147144556
0.263520568609 -3.56603384018 0.439047127962
0.276339799166 -3.57631778717 0.440424889326
0.288713246584 -3.58013629913 0.441011875868
0.302405118942 -3.59926247597 0.443490296602
0.31355419755 -3.58773756027 0.442197293043
0.326794207096 -3.60002613068 0.443844437599
0.337758243084 -3.58718156815 0.44239795208
0.350703686476 -3.59546303749 0.443561792374
0.363606393337 -3.60268640518 0.444600850344
0.377575993538 -3.6195898056 0.446840554476
0.391701340675 -3.63679504395 0.449124187231
0.401674091816 -3.6154923439 0.446657210588
0.415190666914 -3.62632489204 0.448164910078
0.425960659981 -3.61315536499 0.446711331606
0.440744966269 -3.63374018669 0.44943651557
0.455532431602 -3.65314650536 0.452023118734
0.46523296833 -3.63172984123 0.449563622475
0.480055987835 -3.65029358864 0.452058255672
0.493332237005 -3.65637302399 0.453013449907
0.50395399332 -3.64288258553 0.451548844576
0.516788244247 -3.64556837082 0.452093988657
0.530092537403 -3.651283741 0.453020632267
0.544958949089 -3.66716599464 0.45521530509
0.555444002151 -3.65343141556 0.453739017248
0.571080684662 -3.67335748672 0.456448972225
0.582846939564 -3.66798210144 0.456021308899
0.596427261829 -3.67392635345 0.457006365061
0.607410490513 -3.66387486458 0.45600682497
0.624907314777 -3.69263935089 0.459845036268
0.637700557709 -3.69293260574 0.460145205259
0.650893867016 -3.69540190697 0.460722237825
0.661783516407 -3.68486523628 0.459682613611
0.677691578865 -3.70205760002 0.462108194828
0.692997157574 -3.71529626846 0.464048147202
0.704346120358 -3.70714235306 0.463322043419
0.718103885651 -3.71164631844 0.464183270931
0.73263657093 -3.71984100342 0.465512692928
0.746830761433 -3.72597670555 0.466591268778
0.761483073235 -3.73406338692 0.4679210186
0.775337994099 -3.73794746399 0.468730896711
0.789174675941 -3.74153017998 0.46950930357
0.800375699997 -3.73261785507 0.468725025654
0.814545571804 -3.73752856255 0.469682008028
0.82989269495 -3.74751281738 0.471283733845
0.845372676849 -3.75768852234 0.472917199135
0.859073638916 -3.75967717171 0.473527282476
0.872800409794 -3.76162910461 0.474139034748
0.885023534298 -3.7570514679 0.473933428526
0.899926304817 -3.7637283802 0.475153625011
0.915027856827 -3.7709414959 0.476448863745
0.930535078049 -3.77950572968 0.477922469378
0.946430623531 -3.78929185867 0.479558497667
0.95728802681 -3.77882623672 0.478637486696
0.974157750607 -3.79196500778 0.480712711811
0.987334430218 -3.79047608376 0.480940908194
1.00323629379 -3.79925751686 0.482479184866
1.02124047279 -3.81556868553 0.484982669353
1.03421533108 -3.81281495094 0.485070705414
1.04812812805 -3.81345558167 0.48559653759
1.06112718582 -3.81070685387 0.485696822405
1.0791939497 -3.82590341568 0.488092154264
1.09085571766 -3.81820440292 0.487573802471
1.10800790787 -3.82958292961 0.489498466253
1.12120294571 -3.82708024979 0.489656329155
1.14095115662 -3.8466398716 0.492645561695
1.15547025204 -3.84821653366 0.493340879679
1.16905605793 -3.84659099579 0.49363219738
1.18910753727 -3.86593151093 0.496623009443
1.20153176785 -3.86021733284 0.496403694153
1.21591031551 -3.86074829102 0.496993422508
1.23250091076 -3.86811470985 0.498470872641
1.25118923187 -3.8817255497 0.50076264143
1.26323771477 -3.87456703186 0.500382721424
1.27966988087 -3.88076806068 0.501734793186
1.29322254658 -3.87809991837 0.501947641373
1.31268799305 -3.89293050766 0.504433989525
1.3316783905 -3.90594625473 0.506696224213
1.3415607214 -3.89215803146 0.505488216877
1.35922706127 -3.90090918541 0.507213771343
1.37645065784 -3.90811920166 0.508748471737
1.39126265049 -3.90830469131 0.509377002716
1.41342306137 -3.92881393433 0.512664735317
1.42882406712 -3.93020415306 0.513468384743
1.44279491901 -3.9275739193 0.513753890991
1.45758891106 -3.92711567879 0.514330327511
1.4796448946 -3.94593405724 0.517441749573
1.49008214474 -3.93360066414 0.516476690769
1.51322066784 -3.95460724831 0.519898056984
1.52879226208 -3.95551681519 0.520688593388
1.55164694786 -3.9749648571 0.523930490017
1.5644248724 -3.96836853027 0.523749470711
1.57954490185 -3.96768188477 0.524354875088
1.5993322134 -3.97851634026 0.526492416859
1.61642539501 -3.98240280151 0.527720928192
1.63546872139 -3.99087047577 0.529566705227
1.65203845501 -3.99309515953 0.53059387207
1.66603946686 -3.98902320862 0.530792117119
1.6857790947 -3.99853491783 0.532806873322
1.70494771004 -4.00642347336 0.534616708755
1.71859848499 -4.0012140274 0.534687459469
1.74534523487 -4.02620506287 0.538806021214
1.76188671589 -4.02730751038 0.539741039276
1.78077328205 -4.03359460831 0.541380822659
1.79554235935 -4.03041887283 0.541759490967
1.81756234169 -4.04332256317 0.544310092926
1.83684647083 -4.04985666275 0.546015679836
1.85233199596 -4.04786539078 0.546581506729
1.87252092361 -4.05598783493 0.548522949219
1.89132761955 -4.06089115143 0.550040543079
1.90483832359 -4.05432701111 0.550013363361
1.93697881699 -4.08707475662 0.555333912373
1.94896900654 -4.07699680328 0.554849326611
1.97517728806 -4.09646749496 0.558397293091
1.99119234085 -4.09453392029 0.559040606022
2.01590561867 -4.11025571823 0.562106788158
2.03422880173 -4.11267995834 0.563367903233
2.05785775185 -4.12558603287 0.566077768803
2.06896162033 -4.11326169968 0.565335392952
2.08681058884 -4.11432552338 0.566440045834
2.11605882645 -4.1375451088 0.570610404015
2.13776350021 -4.14563941956 0.572711884975
2.1551861763 -4.14524745941 0.573652803898
2.17893385887 -4.15681171417 0.576260924339
2.19842743874 -4.16002035141 0.577724337578
2.21355557442 -4.15486478806 0.578035771847
2.23260855675 -4.15698099136 0.57936835289
2.26051330566 -4.17529296875 0.582973599434
2.28730416298 -4.19115352631 0.586255609989
2.30803823471 -4.19563102722 0.587961018085
2.32204961777 -4.1877913475 0.58795017004
2.34106850624 -4.18891334534 0.589206337929
2.37278795242 -4.21244239807 0.593631565571
2.39670538902 -4.22173833847 0.596070706844
2.4118976593 -4.21551609039 0.596330583096
2.44074487686 -4.23294639587 0.599950551987
2.45058608055 -4.21727514267 0.598890542984
2.48233103752 -4.23912286758 0.6031717062
2.50477790833 -4.24475383759 0.605164408684
2.52912688255 -4.25337028503 0.607598364353
2.54989433289 -4.25575017929 0.609156191349
2.57235622406 -4.26077127457 0.611105978489
2.597687006 -4.2703037262 0.613718867302
2.62462544441 -4.2821855545 0.616687774658
2.65247035027 -4.29522609711 0.619843065739
2.67618107796 -4.30129575729 0.622010290623
2.69816160202 -4.30438184738 0.623761296272
2.71709322929 -4.30246067047 0.624799489975
2.74222421646 -4.3101773262 0.627251803875
2.77300786972 -4.32646512985 0.630971610546
2.79531311989 -4.32924699783 0.632740616798
2.82056713104 -4.33638477325 0.63516241312
2.84867286682 -4.34763336182 0.63820540905
2.88296294212 -4.36794948578 0.642602980137
2.90647864342 -4.37162542343 0.644573867321
2.91866850853 -4.35819625854 0.644033014774
2.94700717926 -4.36875867844 0.647050440311
2.97814393044 -4.38314628601 0.650656580925
3.00415492058 -4.3896946907 0.653120160103
3.03177428246 -4.39833927155 0.655915021896
3.06099295616 -4.40901899338 0.65903455019
3.09133243561 -4.42100429535 0.662371516228
3.11834931374 -4.42795467377 0.664975583553
3.13808751106 -4.42439651489 0.666017591953
3.16497302055 -4.43074607849 0.66856700182
3.19317960739 -4.43869304657 0.671377897263
3.22193169594 -4.44713115692 0.674284338951
3.258040905 -4.46538305283 0.678704202175
3.28496694565 -4.47072887421 0.681186914444
3.30596160889 -4.46783065796 0.682430326939
3.34643721581 -4.49096155167 0.687673389912
3.37704324722 -4.50046253204 0.690858125687
3.40428638458 -4.50522422791 0.693337321281
3.4358355999 -4.5154209137 0.696675479412
3.47104740143 -4.53009796143 0.700731635094
3.4966211319 -4.53191995621 0.70282292366
3.51745510101 -4.5274553299 0.70395553112
3.55728268623 -4.54716825485 0.708871126175
3.59876561165 -4.56854867935 0.714081168175
3.62604832649 -4.5715675354 0.716449260712
3.65359187126 -4.57470560074 0.718856811523
3.69519281387 -4.59511470795 0.724006593227
3.72508764267 -4.60061883926 0.726837575436
3.75810885429 -4.60971260071 0.730260848999
3.78773164749 -4.61437129974 0.733006596565
3.82002496719 -4.62202596664 0.736252963543
3.85400748253 -4.63143205643 0.739805579185
3.88754200935 -4.64000177383 0.743252277374
3.92350125313 -4.65115356445 0.747141599655
3.96114230156 -4.66395664215 0.751327455044
3.99838018417 -4.67593622208 0.755412638187
4.03579044342 -4.68777370453 0.759506762028
4.07240486145 -4.69835186005 0.763428509235
4.11515951157 -4.71563959122 0.768475174904
4.14022636414 -4.71237754822 0.770201385021
4.18780994415 -4.73442840576 0.776095986366
4.22347307205 -4.74260902405 0.779753923416
4.25430297852 -4.74510002136 0.78250426054
4.30042695999 -4.76430940628 0.788045346737
4.34106397629 -4.77703046799 0.792552530766
4.37615251541 -4.78332233429 0.796026229858
4.41999912262 -4.79884243011 0.80107074976
4.46842765808 -4.81889820099 0.806915044785
4.50454282761 -4.8252954483 0.810510635376
4.55019712448 -4.8415555954 0.815799891949
4.58736085892 -4.84842205048 0.819543838501
4.63236856461 -4.86322593689 0.824666917324
4.68287086487 -4.88335514069 0.830738067627
4.71646976471 -4.8854970932 0.833787918091
4.75827932358 -4.89584827423 0.838272571564
4.80822849274 -4.91416788101 0.844164788723
4.85702133179 -4.93085432053 0.849823892117
4.88674783707 -4.92787456512 0.852129340172
4.95064973831 -4.95894956589 0.860368251801
4.99764299393 -4.9725651741 0.86563283205
5.04704761505 -4.98815917969 0.87128841877
5.08854961395 -4.99556255341 0.875556647778
5.14793634415 -5.02007961273 0.882873892784
5.19305515289 -5.03022003174 0.887714326382
5.25108909607 -5.05241966248 0.894734084606
5.29636335373 -5.06189346313 0.899551451206
5.34436941147 -5.07359790802 0.904810726643
5.41226577759 -5.10366296768 0.913403511047
5.45573663712 -5.11020612717 0.917843163013
5.50078105927 -5.1178817749 0.922529160976
5.56401014328 -5.14201450348 0.930236697197
5.62191867828 -5.16069126129 0.937020242214
5.66260910034 -5.16316652298 0.940911591053
5.72805738449 -5.18777751923 0.948891103268
5.78519487381 -5.20432519913 0.955460309982
5.83250761032 -5.21161270142 0.960383057594
5.89013004303 -5.22769117355 0.966979682446
5.95864105225 -5.25288724899 0.975330233574
6.01358509064 -5.26559734344 0.981428325176
6.08237218857 -5.28990507126 0.9897544384
6.13353729248 -5.29838943481 0.995183944702
6.1950302124 -5.31534385681 1.00226414204
6.26362419128 -5.33784103394 1.01046049595
6.32472896576 -5.35341215134 1.01741671562
6.39479970932 -5.37602472305 1.02578318119
6.4641289711 -5.39742183685 1.03399550915
6.53835344315 -5.42229604721 1.04295456409
6.58833312988 -5.42656612396 1.04801881313
6.66091966629 -5.44897270203 1.05665326118
6.74529266357 -5.48034667969 1.06711685658
6.80725860596 -5.49290513992 1.07400035858
6.87961816788 -5.51331138611 1.08249425888
6.95191669464 -5.53307580948 1.09094500542
7.039955616 -5.56469297409 1.10182666779
7.10723114014 -5.57925510406 1.10942208767
7.1866517067 -5.60275888443 1.11888086796
7.26383018494 -5.62387275696 1.12795460224
7.35328912735 -5.65380430222 1.13889622688
7.43441772461 -5.67662191391 1.14850723743
7.51532506943 -5.69861316681 1.15804803371
7.551653862 -5.68638372421 1.1607016325
7.57565832138 -5.66475772858 1.16146540642
7.61027193069 -5.65095663071 1.16386091709
7.62300872803 -5.6208615303 1.16291999817
7.64893531799 -5.60048770905 1.16400408745
7.68620252609 -5.58828496933 1.16681754589
7.70020341873 -5.55909585953 1.16610693932
7.73054265976 -5.54166603088 1.16788113117
7.76885032654 -5.52978849411 1.17086088657
7.78385734558 -5.50124359131 1.17033612728
7.82111644745 -5.4883480072 1.17316484451
7.84327745438 -5.46474456787 1.17373406887
7.86585617065 -5.44139194489 1.17437624931
7.89904594421 -5.42528390884 1.17660903931
7.93352842331 -5.40991020203 1.17903697491
7.9591050148 -5.38834571838 1.18014645576
7.97084236145 -5.35740661621 1.17921674252
8.01021194458 -5.34496593475 1.18238329887
8.04123210907 -5.3267865181 1.18431925774
8.07901573181 -5.31292819977 1.18725383282
8.09952259064 -5.28759860992 1.18765544891
8.12605381012 -5.26614713669 1.1889500618
8.14113330841 -5.23724412918 1.18858063221
8.1912727356 -5.23075294495 1.19333350658
8.20639801025 -5.20175981522 1.19298958778
8.23815822601 -5.18325519562 1.19507360458
8.26083183289 -5.15894031525 1.19584679604
8.29612064362 -5.14239549637 1.1984525919
8.31743049622 -5.11708307266 1.19904589653
8.34548187256 -5.09584856033 1.20061993599
8.37717628479 -5.07672023773 1.20272397995
8.40255355835 -5.05365896225 1.20392811298
8.4349899292 -5.03473377228 1.20615017414
8.46493911743 -5.01419401169 1.2080218792
8.49757766724 -4.99511575699 1.21028280258
8.5151758194 -4.96712112427 1.21041059494
8.5504617691 -4.9493560791 1.21306073666
8.58639144897 -4.93179368973 1.21580541134
8.58891773224 -4.89502048492 1.21383225918
8.6304397583 -4.88042259216 1.21738100052
8.66932678223 -4.86412382126 1.22055912018
8.70222663879 -4.84429264069 1.22289741039
8.71942520142 -4.81564426422 1.22303843498
8.76317882538 -4.80153608322 1.22691059113
8.78282928467 -4.77408504486 1.22741377354
8.81158638 -4.75151348114 1.22919929028
8.85210895538 -4.73512411118 1.23263061047
8.87478256226 -4.7090511322 1.23358237743
8.91511249542 -4.6922121048 1.23699438572
8.94207954407 -4.66818666458 1.23855757713
8.96043109894 -4.63960313797 1.23893785477
9.01397705078 -4.62907028198 1.24418854713
9.03171825409 -4.59997844696 1.24450147152
9.07159423828 -4.58204841614 1.24787223339
9.08564186096 -4.55097389221 1.24769854546
9.11858081818 -4.52929353714 1.2501295805
9.16345310211 -4.51334142685 1.25419974327
4.74829816818 2.06782507896 0.635902583599
4.72404384613 2.07613325119 0.633583128452
4.69546413422 2.08238434792 0.630682826042
4.66363525391 2.08700823784 0.62734401226
4.64402627945 2.09695005417 0.625648498535
4.6104593277 2.10043120384 0.622071623802
4.58207035065 2.10607790947 0.619190454483
4.54702615738 2.10846495628 0.615406632423
4.54034233093 2.12389063835 0.615462362766
4.51599311829 2.13098406792 0.613126814365
4.49318122864 2.13866829872 0.610999763012
4.47174072266 2.14688205719 0.609059631824
4.42692995071 2.14366197586 0.603931844234
4.41838407516 2.1578412056 0.603749632835
4.38664913177 2.16058802605 0.600399672985
4.37587022781 2.17353987694 0.599918425083
4.35599994659 2.1819088459 0.598193824291
4.32930517197 2.18672513962 0.595531404018
4.30594396591 2.19307661057 0.593326032162
4.29165792465 2.20395350456 0.592372477055
4.26120662689 2.20640158653 0.589187085629
4.23193311691 2.20926833153 0.586160361767
4.21053695679 2.21609473228 0.584222733974
4.1914100647 2.22400546074 0.582600176334
4.17514419556 2.23334646225 0.581376791
4.15019655228 2.23793029785 0.578944444656
4.12822294235 2.24397945404 0.576925456524
4.10592365265 2.24972486496 0.574859976768
4.08598709106 2.25664639473 0.573124885559
4.05595874786 2.2578420639 0.569971561432
4.04711389542 2.27072548866 0.569795250893
4.02304124832 2.27498722076 0.56747674942
4.00377655029 2.28184366226 0.565835356712
3.97513127327 2.28320908546 0.5628657341
3.96165275574 2.29316616058 0.56204277277
3.94765543938 2.30276894569 0.561149120331
3.92708611488 2.30845212936 0.559322357178
3.89305949211 2.30604791641 0.555574119091
3.88699197769 2.32009410858 0.555815219879
3.87094783783 2.32815527916 0.554634094238
3.84384679794 2.32944083214 0.551866948605
3.8208835125 2.33307600021 0.549690127373
3.80363559723 2.34008789062 0.548334360123
