-4.596763134 4.57372093201 -1.49706983566
-4.6226234436 4.56871175766 -1.50049483776
-4.64640951157 4.56152582169 -1.5032428503
-4.65447950363 4.53890275955 -1.50092184544
-4.66118955612 4.51505565643 -1.49819552898
-4.67594385147 4.49905824661 -1.49808096886
-4.69186735153 4.48418188095 -1.49835729599
-4.71314096451 4.47437381744 -1.50035178661
-4.72676992416 4.45727729797 -1.49992454052
-4.74721765518 4.44658374786 -1.50167393684
-4.75697374344 4.42587327957 -1.50005745888
-4.76505470276 4.40367794037 -1.49794137478
-4.78945589066 4.39654779434 -1.50096976757
-4.7970700264 4.37399101257 -1.49875164032
-4.81636953354 4.36210489273 -1.50020349026
-4.83324480057 4.34798002243 -1.50091063976
-4.84817075729 4.33208608627 -1.50102674961
-4.85849428177 4.31210184097 -1.49973833561
-4.8745098114 4.29718542099 -1.50022614002
-4.88532209396 4.27769374847 -1.49913132191
-4.90616321564 4.26696634293 -1.50112819672
-4.92120599747 4.25115299225 -1.50136125088
-4.93720722198 4.23615264893 -1.50190138817
-4.94774580002 4.21647644043 -1.50079834461
-4.95018577576 4.18998622894 -1.49726867676
-4.98642635345 4.19204616547 -1.50397062302
-4.97806596756 4.15661048889 -1.4972370863
-5.00426149368 4.15008687973 -1.50092244148
-4.98342466354 -5.90768194199 -1.50233530998
-4.96384096146 -5.92465734482 -1.50241136551
-4.92854404449 -5.92275476456 -1.49773013592
-4.91548204422 -5.94750165939 -1.49981200695
-4.89597558975 -5.96451234818 -1.4999537468
-4.88604879379 -5.9932808876 -1.50306022167
-4.85614490509 -5.99754810333 -1.50003862381
-4.83753108978 -6.01568889618 -1.5005106926
-4.81858253479 -6.03343725204 -1.5008995533
-4.79567480087 -6.04621601105 -1.50007009506
-4.78003692627 -6.06817770004 -1.50153410435
-4.75551795959 -6.07886981964 -1.50022602081
-4.72967576981 -6.08778572083 -1.49850440025
-4.72189331055 -6.12001132965 -1.50253129005
-4.70197582245 -6.13662862778 -1.50273215771
-4.66519641876 -6.13109779358 -1.49753904343
-4.65176725388 -6.15617132187 -1.49984538555
-4.6311917305 -6.171854496 -1.49987483025
-4.6139421463 -6.19200372696 -1.5010035038
-4.58603715897 -6.19781827927 -1.49867737293
-4.56480264664 -6.21257638931 -1.49853670597
-4.55016040802 -6.2363615036 -1.50058555603
-4.52566576004 -6.24666881561 -1.49940621853
-4.50823020935 -6.26671981812 -1.50058245659
-4.48282766342 -6.27568769455 -1.49912238121
-4.46505641937 -6.2953286171 -1.50022959709
-4.45072603226 -6.31992197037 -1.50252580643
-4.42161512375 -6.32351541519 -1.49984717369
-4.40566635132 -6.3459072113 -1.50164616108
-4.3753619194 -6.34758138657 -1.49856245518
-4.36656570435 -6.38049602509 -1.50286829472
-4.33786964417 -6.38438749313 -1.50035083294
-4.3080945015 -6.38652467728 -1.4974501133
-4.30128669739 -6.42277765274 -1.50256049633
-4.27298927307 -6.42702674866 -1.50019454956
-4.25259780884 -6.44310712814 -1.50061142445
-4.22874832153 -6.45393610001 -1.49982297421
-4.20971393585 -6.47211837769 -1.50075984001
-4.18153381348 -6.4761967659 -1.49844610691
-4.1662106514 -6.50018692017 -1.50075650215
-4.13871479034 -6.50519418716 -1.49870038033
-4.12070560455 -6.52508974075 -1.50009250641
-4.10397148132 -6.54711151123 -1.50198352337
-4.07824516296 -6.5548043251 -1.50060296059
-4.06310510635 -6.57954931259 -1.50314068794
-4.03632211685 -6.58546638489 -1.50139224529
-4.01013851166 -6.592253685 -1.49986588955
-3.99474096298 -6.6168050766 -1.50239610672
-3.96468520164 -6.61706256866 -1.49942779541
-3.93650221825 -6.62026977539 -1.49715542793
-3.91393065453 -6.632833004 -1.49702048302
-3.89289236069 -6.64800548553 -1.49749064445
-3.87921595573 -6.67588043213 -1.50083148479
-3.85514640808 -6.68596220016 -1.50018358231
-3.82590341568 -6.68695688248 -1.49752020836
-3.80910277367 -6.70968341827 -1.49974119663
-3.78480005264 -6.71924829483 -1.49903428555
-3.76500582695 -6.73683023453 -1.50013208389
-3.74687671661 -6.75749444962 -1.50192761421
-3.71010899544 -6.74440574646 -1.49624538422
-3.69130563736 -6.76382541656 -1.49779951572
-3.67710018158 -6.79185056686 -1.50126695633
-3.65288114548 -6.80148506165 -1.50068092346
-3.62014865875 -6.79509687424 -1.49658489227
-3.60854935646 -6.82839727402 -1.5012460947
-3.5818529129 -6.83324241638 -1.49966263771
-3.56227135658 -6.85165548325 -1.50107395649
-3.5377202034 -6.86053752899 -1.50041282177
-1.61222052574 -3.15240716934 -0.688251495361
-1.60702764988 -3.16841316223 -0.690565764904
-1.58292019367 -3.14699339867 -0.684736609459
-1.57008266449 -3.14771723747 -0.683744847775
-1.55283343792 -3.13944482803 -0.680813193321
-1.54364693165 -3.14738249779 -0.681408345699
-1.53332912922 -3.15304088593 -0.68151652813
-1.51199436188 -3.13585925102 -0.67670327425
-1.50535702705 -3.1490380764 -0.678454220295
-1.49370884895 -3.15178561211 -0.677963316441
-1.47774624825 -3.1453101635 -0.675500869751
-1.46775233746 -3.15144968033 -0.675758719444
-1.45769238472 -3.15746736526 -0.675997376442
-1.4420068264 -3.15121197701 -0.673619151115
-1.43516421318 -3.16425466537 -0.675374865532
-1.42076146603 -3.16062760353 -0.673580169678
-1.40640604496 -3.15695476532 -0.671788692474
-1.39681684971 -3.1639251709 -0.672271668911
-1.38152146339 -3.15789413452 -0.670002222061
-1.36646294594 -3.15221309662 -0.66782104969
-1.35768306255 -3.16095972061 -0.668705940247
-1.33825969696 -3.14477348328 -0.664328753948
-1.32950687408 -3.15350866318 -0.665228664875
-1.32415771484 -3.17047452927 -0.66786724329
-1.30322563648 -3.15001320839 -0.662632882595
-1.28947091103 -3.14659023285 -0.660999655724
-1.2810447216 -3.1561460495 -0.662101089954
-1.26196694374 -3.13930702209 -0.657677233219
-1.25476694107 -3.15189170837 -0.659428596497
-1.24197041988 -3.15044522285 -0.658251106739
-1.23345863819 -3.15986394882 -0.659351229668
-1.21501541138 -3.1436920166 -0.655122995377
-1.20227599144 -3.14201831818 -0.653930544853
-1.19483208656 -3.15420866013 -0.655630171299
-1.18230891228 -3.15302038193 -0.654555559158
-1.1724780798 -3.15898013115 -0.654972970486
-1.15773999691 -3.15162372589 -0.652639210224
-1.14599215984 -3.15225696564 -0.651971042156
-1.1331692934 -3.14983391762 -0.650680422783
-1.1233625412 -3.15575194359 -0.651121199131
-1.10990810394 -3.15135908127 -0.649443387985
-1.10054576397 -3.15853452682 -0.650158047676
-1.08276367188 -3.14135861397 -0.645871579647
-1.07144749165 -3.14269018173 -0.645403146744
-1.06464242935 -3.15735006332 -0.647677063942
-1.05309319496 -3.15803098679 -0.647088825703
-1.03982853889 -3.15344548225 -0.645431280136
-1.03070247173 -3.16136980057 -0.646342217922
-1.01629197598 -3.15300250053 -0.643931269646
-1.00255179405 -3.14646482468 -0.641906023026
-0.992674052715 -3.15195941925 -0.642344355583
-0.977915465832 -3.14182424545 -0.639607071877
-0.969875574112 -3.15321183205 -0.641259729862
-0.961400866508 -3.16336512566 -0.642665445805
-0.94866669178 -3.15950155258 -0.6412307024
-0.933251738548 -3.14642596245 -0.637938380241
-0.926423490047 -3.1622569561 -0.640514731407
-0.910355269909 -3.14647173882 -0.636695623398
-0.898804008961 -3.14601802826 -0.635990440845
-0.88722795248 -3.1453871727 -0.635257959366
-0.878152728081 -3.15364360809 -0.636327266693
-0.863404393196 -3.14139866829 -0.633268892765
-0.854732394218 -3.15115308762 -0.634653925896
-0.844419062138 -3.15495991707 -0.634846925735
-0.832043707371 -3.1509847641 -0.633482098579
-0.824168384075 -3.16409945488 -0.635559618473
-0.807716071606 -3.14411592484 -0.630998075008
-0.796014606953 -3.14224600792 -0.630083620548
-0.785750925541 -3.14600276947 -0.630305111408
-0.778290450573 -3.16117787361 -0.632819116116
-0.76594132185 -3.15657424927 -0.631379902363
-0.755316495895 -3.15896940231 -0.631348907948
-0.741380691528 -3.14730429649 -0.628517210484
-0.731504023075 -3.15270233154 -0.629101872444
-0.718316018581 -3.14369940758 -0.626821279526
-0.712820529938 -3.1685321331 -0.631292581558
-0.69647693634 -3.14509224892 -0.626153707504
-0.685406029224 -3.14501404762 -0.62567704916
-0.67853718996 -3.1644551754 -0.629088580608
-0.661915004253 -3.13822507858 -0.62342941761
-0.651525497437 -3.14108252525 -0.623559594154
-0.644018888474 -3.15810060501 -0.626505792141
-0.635357499123 -3.16987466812 -0.628415465355
-0.618583679199 -3.14080023766 -0.622236847878
-0.609924077988 -3.15254473686 -0.624154984951
-0.599008440971 -3.15277028084 -0.623798489571
-0.588108956814 -3.15301609039 -0.623453497887
-0.578811466694 -3.1619477272 -0.624832332134
-0.565052032471 -3.14630460739 -0.621363162994
-0.555437088013 -3.15350222588 -0.622413396835
-0.546271145344 -3.16351389885 -0.624024391174
-0.533097028732 -3.15017414093 -0.621036946774
-0.520605623722 -3.14032316208 -0.618747353554
-0.509346604347 -3.13757181168 -0.617865264416
-0.500121891499 -3.14742922783 -0.619472742081
-0.490302145481 -3.15382146835 -0.620403826237
-0.47826051712 -3.14581346512 -0.618509590626
-0.468582451344 -3.15326690674 -0.619662702084
-0.457324117422 -3.15011286736 -0.618738114834
-0.44711920619 -3.15416383743 -0.619235813618
-0.436952441931 -3.15861678123 -0.619818925858
-0.42648139596 -3.16096568108 -0.619995772839
-0.413472086191 -3.14406132698 -0.616404771805
-0.404200047255 -3.15535759926 -0.61835026741
-0.394677460194 -3.16518783569 -0.620013892651
-0.380074888468 -3.13361287117 -0.613575696945
-0.373966544867 -3.1721944809 -0.620881199837
-0.359605967999 -3.14091539383 -0.6145195961
-0.349779576063 -3.14846277237 -0.615763366222
-0.339951634407 -3.15639781952 -0.617088854313
-0.328515946865 -3.14936208725 -0.615494549274
-0.317859023809 -3.14949584007 -0.615308940411
-0.30816245079 -3.15941095352 -0.617040753365
-0.296678096056 -3.1509771347 -0.615195870399
-0.284907788038 -3.13868999481 -0.612606942654
-0.275450974703 -3.1518509388 -0.61499196291
-0.264060258865 -3.14297747612 -0.613084375858
-0.255133122206 -3.16383719444 -0.616983056068
-0.243436813354 -3.1506049633 -0.614239990711
-0.233539640903 -3.16043758392 -0.616000831127
-0.221593767405 -3.14208579063 -0.612275660038
-0.211439430714 -3.1484951973 -0.613383054733
-0.200951188803 -3.15027213097 -0.613594532013
-0.190308988094 -3.14962434769 -0.613340556622
-0.178677201271 -3.13148093224 -0.609687328339
-0.168969556689 -3.14682388306 -0.612560808659
-0.158376812935 -3.14655637741 -0.61240196228
-0.147333458066 -3.13658165932 -0.610361039639
-0.137280508876 -3.14770269394 -0.612432122231
-0.126599147916 -3.14499187469 -0.611818671227
-0.116343162954 -3.15323925018 -0.613343775272
-0.105586513877 -3.1481320858 -0.612278044224
-0.0953780263662 -3.1599714756 -0.614515006542
-0.0842995792627 -3.14226508141 -0.611013293266
-0.0739046186209 -3.14853429794 -0.612180709839
-0.0632019415498 -3.14151620865 -0.610771536827
-0.053070563823 -3.16568350792 -0.615432024002
-0.042194634676 -3.14633011818 -0.611638665199
-0.0316343940794 -3.14536476135 -0.611426949501
-0.0211821310222 -3.15943336487 -0.61414450407
-0.0105647444725 -3.15224051476 -0.61273598671
4.18991248807e-06 -3.15792012215 -0.613836526871
0.0105402693152 -3.1424498558 -0.610832870007
0.0211692154408 -3.15625739098 -0.61352711916
0.0316585190594 -3.14693284035 -0.611731827259
0.0422645024955 -3.15091609955 -0.612530231476
0.0527856908739 -3.14819216728 -0.612031638622
0.0635185167193 -3.15683531761 -0.613749921322
0.0738064050674 -3.14399456978 -0.611298084259
0.0847366526723 -3.15824460983 -0.614120543003
0.0954186916351 -3.16104054451 -0.614722967148
0.105453446507 -3.14391565323 -0.611458063126
0.115900717676 -3.1410214901 -0.610967338085
0.127029642463 -3.15547800064 -0.613858699799
0.137567028403 -3.15407991409 -0.613672971725
0.148026674986 -3.15116095543 -0.613198161125
0.158448323607 -3.14781069756 -0.61264616251
0.169006288052 -3.14735198021 -0.61266374588
0.179588884115 -3.14731216431 -0.612769722939
0.190253973007 -3.14857506752 -0.613136351109
0.200877159834 -3.1489803791 -0.613343000412
0.211281433702 -3.14601778984 -0.612900495529
0.221130371094 -3.13539648056 -0.610972285271
0.23278413713 -3.15009975433 -0.61398601532
0.242308616638 -3.13589525223 -0.611372351646
0.253554433584 -3.14415621758 -0.613145172596
0.264638006687 -3.14975380898 -0.614406406879
0.275107264519 -3.14782166481 -0.614205956459
0.285338371992 -3.14334106445 -0.613514900208
0.295930951834 -3.14295220375 -0.613629221916
0.30636844039 -3.14093184471 -0.613431870937
0.31736895442 -3.14455652237 -0.614344120026
0.328957617283 -3.15351510048 -0.616306364536
0.338880330324 -3.1463727951 -0.615129113197
0.350276559591 -3.15285992622 -0.616623520851
0.359436035156 -3.13935732841 -0.61421495676
0.372109919786 -3.15637350082 -0.617784798145
0.380437880754 -3.13653588295 -0.614148259163
0.39388102293 -3.15873241425 -0.618749558926
0.402779072523 -3.14419865608 -0.616163671017
0.415351718664 -3.15828919411 -0.61919438839
0.427139937878 -3.1657834053 -0.620940923691
0.437117278576 -3.15974664688 -0.62004083395
0.447391927242 -3.15602755547 -0.619601905346
0.456696182489 -3.14572882652 -0.617877185345
0.469580352306 -3.15992450714 -0.620971262455
0.478280961514 -3.14589190483 -0.618525266647
0.488210678101 -3.14031362534 -0.617746889591
0.501365065575 -3.1551990509 -0.62100225687
0.511471092701 -3.15060567856 -0.620432257652
0.52092730999 -3.14221191406 -0.619119763374
0.533136487007 -3.15035629272 -0.621073186398
0.54460144043 -3.15379428864 -0.622107446194
0.556543886662 -3.15973687172 -0.62364423275
0.565386474133 -3.14811849594 -0.621721744537
0.576230347157 -3.14780044556 -0.622036993504
0.587948620319 -3.15211009979 -0.623274624348
0.60014218092 -3.15869188309 -0.624970436096
0.610309064388 -3.15448999405 -0.624540388584
0.619709074497 -3.1464703083 -0.623360514641
0.62885594368 -3.13739442825 -0.621976673603
0.64450019598 -3.16041779518 -0.626965820789
0.651254057884 -3.13973212242 -0.62329185009
0.664845168591 -3.15207576752 -0.626181304455
0.67646753788 -3.15476202965 -0.627161979675
0.689980506897 -3.16596388817 -0.629845261574
0.697353363037 -3.14901041985 -0.626934111118
0.709510624409 -3.15378046036 -0.628353893757
0.721235752106 -3.15643906593 -0.6293618083
0.727726519108 -3.13638401031 -0.625845968723
0.742882430553 -3.15364217758 -0.629783272743
0.751538932323 -3.14313340187 -0.628184318542
0.765543460846 -3.15489816666 -0.631045043468
0.773614764214 -3.14215087891 -0.629010558128
0.78634172678 -3.14833259583 -0.630772352219
0.79843211174 -3.15175366402 -0.631990551949
0.812237083912 -3.1616795063 -0.634523391724
0.820847272873 -3.15131497383 -0.63299202919
0.832511842251 -3.15272378922 -0.633832156658
0.837951302528 -3.13076162338 -0.629978120327
0.855361759663 -3.15343999863 -0.635115027428
0.86374861002 -3.14261865616 -0.633515238762
0.877962708473 -3.15292882919 -0.63618350029
0.885903477669 -3.14065980911 -0.634303689003
0.897017478943 -3.13973331451 -0.634720444679
0.912049591541 -3.15229654312 -0.637874782085
0.92025488615 -3.14117002487 -0.636244058609
0.93317937851 -3.14615154266 -0.63788318634
0.947249293327 -3.15475058556 -0.640267014503
0.955445766449 -3.14374065399 -0.638679087162
0.967230916023 -3.14458394051 -0.639505624771
0.982313454151 -3.15592455864 -0.642478108406
0.992817997932 -3.1523873806 -0.64243209362
0.999986469746 -3.13838505745 -0.640258193016
1.01485836506 -3.14852595329 -0.643017590046
1.02508437634 -3.14410972595 -0.642813980579
1.03929150105 -3.15178871155 -0.645092725754
1.05061030388 -3.15055775642 -0.64555811882
1.06041765213 -3.1447930336 -0.64510178566
1.07132315636 -3.14229822159 -0.64532327652
1.08444857597 -3.1462199688 -0.646871685982
1.09305775166 -3.1370177269 -0.645729541779
1.10920953751 -3.14934897423 -0.64902973175
1.11907815933 -3.14368987083 -0.64863306284
1.13150274754 -3.14517569542 -0.649718761444
1.1428052187 -3.14346456528 -0.650153160095
1.15315210819 -3.13910865784 -0.65004825592
1.16926729679 -3.15030407906 -0.653174698353
1.1835103035 -3.15619897842 -0.655216038227
1.1947106123 -3.15386271477 -0.655558943748
1.20985746384 -3.1618065834 -0.658049583435
1.21423089504 -3.14163708687 -0.65469545126
1.22404301167 -3.13571834564 -0.654313564301
1.23863041401 -3.14194822311 -0.656476438046
1.25282156467 -3.1469810009 -0.65840190649
1.26546692848 -3.14798951149 -0.659496843815
1.27839386463 -3.1495912075 -0.660726666451
1.28982055187 -3.1474199295 -0.661174654961
1.30322098732 -3.14997816086 -0.662626266479
1.31741786003 -3.15431332588 -0.664463639259
1.32621347904 -3.14567375183 -0.663576602936
1.34027409554 -3.14948391914 -0.665324628353
1.35205638409 -3.14783668518 -0.665930509567
1.36178863049 -3.14140748978 -0.665532588959
1.37810587883 -3.15006422997 -0.668341696262
1.38777863979 -3.14342999458 -0.667917609215
1.4022128582 -3.14751982689 -0.669781804085
1.41671168804 -3.15159606934 -0.671656191349
1.42552852631 -3.14298772812 -0.670836448669
1.4370033741 -3.14025568962 -0.671277940273
1.45154452324 -3.14412879944 -0.673142433167
1.46162223816 -3.13826584816 -0.672932624817
1.47589671612 -3.14135193825 -0.674651622772
1.4880951643 -3.13991904259 -0.675411641598
1.5021545887 -3.14231777191 -0.677007138729
1.51923465729 -3.15085411072 -0.679939985275
1.5320943594 -3.1504805088 -0.680964052677
1.5443842411 -3.14886450768 -0.681730091572
1.55165719986 -3.13704586029 -0.680293858051
1.56472063065 -3.13694643974 -0.681406199932
1.58740496635 -3.15588855743 -0.686672985554
1.59802019596 -3.15063333511 -0.686691522598
1.60736584663 -3.14289402962 -0.686175465584
1.62899315357 -3.15901064873 -0.690882623196
1.63453686237 -3.14383983612 -0.688759446144
1.65337491035 -3.15418839455 -0.692237257957
1.66338944435 -3.14758348465 -0.692007780075
1.67761933804 -3.14890766144 -0.693531572819
1.69627177715 -3.1583545208 -0.696860969067
1.70695137978 -3.15283370018 -0.696901679039
1.71999692917 -3.15164518356 -0.697909712791
1.72284567356 -3.13184785843 -0.694800972939
1.74709320068 -3.15086388588 -0.70031529665
1.76169252396 -3.15222620964 -0.70192694664
1.77243971825 -3.14663600922 -0.702001512051
1.789747715 -3.15259718895 -0.704666137695
1.79723191261 -3.14120268822 -0.70346224308
1.81720876694 -3.15155720711 -0.707141578197
1.83180832863 -3.15240478516 -0.708705842495
1.84038591385 -3.14286136627 -0.707943618298
1.85812520981 -3.14889550209 -0.710702180862
1.87604188919 -3.15504169464 -0.713504970074
1.88622260094 -3.14808797836 -0.713358581066
1.90087711811 -3.14855408669 -0.714904367924
1.91585040092 -3.14944148064 -0.71656036377
1.935785532 -3.15831446648 -0.720051765442
1.95133948326 -3.15986347198 -0.721892476082
1.96315646172 -3.15528583527 -0.722346365452
1.97934806347 -3.15765738487 -0.724404513836
1.9830302 -3.14008712769 -0.721894919872
2.00173854828 -3.1462957859 -0.72486114502
2.01705551147 -3.14702320099 -0.726582705975
2.02507138252 -3.13633346558 -0.72567820549
2.04316616058 -3.14119625092 -0.728384256363
2.06164312363 -3.14647126198 -0.731206178665
2.07502293587 -3.1438472271 -0.732209086418
2.09286856651 -3.14787721634 -0.734777808189
2.10893297195 -3.14908790588 -0.736706733704
2.11662912369 -3.13777375221 -0.735715985298
2.12794542313 -3.13184857368 -0.735995411873
2.15687942505 -3.15164899826 -0.742343842983
2.1705801487 -3.14896392822 -0.743421375751
2.19220805168 -3.15763139725 -0.747198700905
2.20035386086 -3.14679002762 -0.7463747859
2.21805882454 -3.14957141876 -0.748794257641
2.23004317284 -3.14414286613 -0.749276995659
2.24313926697 -3.14024162292 -0.750135362148
2.26434016228 -3.14755582809 -0.753691911697
2.27640247345 -3.14204668999 -0.754196107388
2.30097460747 -3.15365362167 -0.758829653263
2.31286549568 -3.14773154259 -0.759266376495
2.3251683712 -3.1423406601 -0.759842216969
2.34503006935 -3.14706063271 -0.762880444527
2.35547327995 -3.13905358315 -0.762849628925
2.37942647934 -3.14892721176 -0.767183542252
2.39299631119 -3.14490795135 -0.768154740334
2.40316128731 -3.13638925552 -0.768037796021
2.42137670517 -3.13831138611 -0.770492136478
2.45092821121 -3.15468621254 -0.776525497437
2.46396040916 -3.14960694313 -0.777304410934
2.47530603409 -3.14234304428 -0.777555525303
2.4907977581 -3.14029192924 -0.779110074043
2.51357555389 -3.14727759361 -0.782929718494
2.53802323341 -3.15612983704 -0.787244260311
2.5468993187 -3.14551329613 -0.786721765995
2.5630774498 -3.14388179779 -0.788458585739
2.57333493233 -3.13494300842 -0.78837621212
2.60399675369 -3.15069675446 -0.794529080391
2.62178635597 -3.15064930916 -0.796729385853
2.63559603691 -3.14573335648 -0.797716379166
2.64669060707 -3.13754558563 -0.797885894775
2.67076015472 -3.14462566376 -0.801959037781
2.69185614586 -3.14801192284 -0.805119812489
2.71126866341 -3.14927530289 -0.807763278484
2.72605705261 -3.14506435394 -0.809023022652
2.73888516426 -3.13854074478 -0.809702575207
2.76602911949 -3.14827561378 -0.814602017403
2.78710198402 -3.15089154243 -0.817692160606
2.80165410042 -3.1460249424 -0.818862318993
2.82286405563 -3.14852309227 -0.821971416473
2.83979105949 -3.14611625671 -0.823824167252
2.85296821594 -3.13948774338 -0.824588537216
2.88313174248 -3.1513864994 -0.830248117447
2.896494627 -3.14475655556 -0.831055283546
2.9298593998 -3.15965604782 -0.837583959103
2.9371035099 -3.14624452591 -0.836634516716
2.95087766647 -3.13982868195 -0.837554693222
2.98026871681 -3.14987230301 -0.842894554138
3.00239348412 -3.15201997757 -0.846158266068
3.01566982269 -3.14477753639 -0.846923530102
3.02925109863 -3.13781285286 -0.847778379917
3.05887937546 -3.14731645584 -0.853112220764
3.08309221268 -3.15102171898 -0.856913745403
3.09606313705 -3.14312720299 -0.857585072517
3.12203717232 -3.14831233025 -0.861850976944
3.13759446144 -3.14285445213 -0.863231837749
3.16658234596 -3.15069246292 -0.868295907974
3.18035769463 -3.14324975014 -0.869178533554
3.21217608452 -3.15347743034 -0.874979913235
3.22485685349 -3.14476275444 -0.875557005405
3.24486231804 -3.14311528206 -0.878122448921
3.26560735703 -3.14205622673 -0.880880594254
3.28938269615 -3.14376163483 -0.884445667267
3.30562329292 -3.13814425468 -0.885978341103
3.33485794067 -3.14470696449 -0.890982925892
3.36050796509 -3.14767551422 -0.895011246204
3.37527441978 -3.14032769203 -0.896134793758
3.40474486351 -3.14651608467 -0.901153147221
3.42916440964 -3.14783239365 -0.904817938805
3.44679641724 -3.14278864861 -0.906684875488
3.47373819351 -3.14608931541 -0.910992026329
3.48751854897 -3.1373500824 -0.911842226982
3.5189781189 -3.14436817169 -0.917306005955
3.54542255402 -3.14668321609 -0.921443998814
3.56425642967 -3.14209842682 -0.923595666885
3.5838868618 -3.13811230659 -0.925950884819
3.62015080452 -3.14848446846 -0.932587563992
3.6413602829 -3.14554953575 -0.935329198837
3.66203737259 -3.14203262329 -0.937929093838
3.68699097633 -3.14204216003 -0.94161683321
3.70040464401 -3.13211727142 -0.942355275154
3.73366475105 -3.13884329796 -0.948140025139
3.75859022141 -3.13835000992 -0.951792240143
3.78884506226 -3.14211201668 -0.956780493259
3.81300759315 -3.14063334465 -0.96021771431
3.84333515167 -3.14404439926 -0.965194940567
3.87312245369 -3.14679503441 -0.970020473003
3.8862388134 -3.13587927818 -0.970666706562
3.91577005386 -3.13808989525 -0.975409328938
3.95367217064 -3.14675331116 -0.982217013836
3.98423147202 -3.14931297302 -0.987180173397
4.00317811966 -3.14253902435 -0.989258408546
4.03038597107 -3.14211440086 -0.993373036385
4.05245256424 -3.13752913475 -0.996213436127
4.0902132988 -3.14488697052 -1.00289833546
4.11971235275 -3.14564633369 -1.00753974915
4.14480304718 -3.14286184311 -1.01109325886
4.17842721939 -3.14634943008 -1.01671659946
4.20105361938 -3.14137077332 -1.01965355873
4.23187398911 -3.14234972 -1.02457118034
4.26365995407 -3.14383006096 -1.02970910072
4.28526115417 -3.13763284683 -1.03237938881
4.32288312912 -3.14297008514 -1.03889846802
4.35258960724 -3.14231467247 -1.04349982738
4.3763551712 -3.13720488548 -1.04666984081
4.40826559067 -3.13775849342 -1.05177974701
4.45060777664 -3.14546823502 -1.05936002731
4.47741556168 -3.14195752144 -1.06322753429
4.51351928711 -3.14476060867 -1.0692909956
4.53201007843 -3.13512516022 -1.07117545605
4.58441638947 -3.14870452881 -1.08106064796
4.61779928207 -3.14889883995 -1.08643710613
4.63617324829 -3.13870787621 -1.08827793598
4.6754565239 -3.1424934864 -1.09501969814
4.70110750198 -3.13690328598 -1.09855794907
4.74484348297 -3.14314627647 -1.10630941391
4.7688908577 -3.13612127304 -1.10945832729
4.81823539734 -3.14548110962 -1.11847829819
4.83672189713 -3.13447237015 -1.1203237772
4.87646007538 -3.13705849648 -1.12708568573
4.93032646179 -3.14838981628 -1.13708949089
4.95950603485 -3.14366412163 -1.14138185978
4.99284219742 -3.14137840271 -1.14662349224
5.02599716187 -3.13876628876 -1.15181434155
5.07065057755 -3.14307045937 -1.15962612629
5.11951255798 -3.14964699745 -1.16837894917
5.14188623428 -3.13969540596 -1.17107594013
5.18825483322 -3.14417648315 -1.17922902107
5.2354722023 -3.14883947372 -1.18755471706
5.26489400864 -3.14254546165 -1.19183170795
5.29347038269 -3.13557910919 -1.19591403008
5.33526039124 -3.13621640205 -1.20297288895
5.3879237175 -3.1429142952 -1.21246445179
5.43181180954 -3.14415407181 -1.21996164322
5.47426652908 -3.144272089 -1.22712206841
5.5035905838 -3.13662195206 -1.23133111
5.54178667068 -3.13382196426 -1.23751914501
5.60719490051 -3.14604473114 -1.2497626543
5.64448642731 -3.14213228226 -1.25571930408
5.68440771103 -3.13943696022 -1.26225173473
5.73123264313 -3.14026689529 -1.27030432224
5.77594900131 -3.1396343708 -1.27787518501
5.83245706558 -3.14506340027 -1.28803682327
5.87071561813 -3.14033269882 -1.29415333271
5.9325671196 -3.14788150787 -1.30545413494
5.991979599 -3.15370559692 -1.31619358063
6.03418159485 -3.15012693405 -1.32313609123
6.07779932022 -3.14701128006 -1.33037924767
6.12951803207 -3.14777469635 -1.33938229084
6.18728971481 -3.15127205849 -1.34968996048
6.2353925705 -3.14948701859 -1.35787189007
6.27965927124 -3.14546465874 -1.36520755291
6.34605503082 -3.15215086937 -1.37733662128
6.38495635986 -3.14482855797 -1.38348340988
6.45712375641 -3.15351653099 -1.39682173729
6.50928640366 -3.15200591087 -1.40581178665
6.56137895584 -3.15011715889 -1.41477310658
6.62184047699 -3.15186929703 -1.4255232811
6.66817378998 -3.14654421806 -1.43321859837
6.72267246246 -3.14474534988 -1.44265782833
6.78979301453 -3.1484401226 -1.45478820801
6.84264230728 -3.14511466026 -1.46384418011
6.90804576874 -3.14716482162 -1.47557020187
6.96797943115 -3.14630079269 -1.48611044884
7.03995752335 -3.15042853355 -1.4992005825
7.06307268143 -3.13239145279 -1.50187802315
7.07845067978 -3.11085295677 -1.50292170048
7.07517337799 -3.08115053177 -1.50002396107
7.0996761322 -3.06354427338 -1.50303280354
7.10432195663 -3.03733491898 -1.50185191631
7.09377527237 -3.00473451614 -1.49748420715
7.11725139618 -2.98657417297 -1.50031769276
7.11772966385 -2.95874738693 -1.4983189106
7.09446763992 -2.92121982574 -1.4913520813
7.11957979202 -2.90368056297 -1.49457597733
7.15300416946 -2.88937878609 -1.49955058098
7.1624083519 -2.86528253555 -1.4994995594
7.17992210388 -2.8444006443 -1.50116121769
7.18340301514 -2.81795191765 -1.49990522861
7.18097114563 -2.78925275803 -1.49743628502
7.19288825989 -2.7661626339 -1.4979789257
7.20579624176 -2.74342942238 -1.49874305725
7.22156333923 -2.72174549103 -1.50011610985
7.2215051651 -2.69410657883 -1.49821913242
7.23083162308 -2.67000246048 -1.49828839302
7.24250936508 -2.64675474167 -1.49886095524
7.25068759918 -2.62222027779 -1.49872553349
7.26342582703 -2.59932231903 -1.49954867363
7.28157949448 -2.57831120491 -1.50150334835
7.29348945618 -2.55504131317 -1.50218439102
7.29734563828 -2.52895498276 -1.50122380257
5.74124860764 -1.9681404829 -1.17973637581
5.74814128876 -1.94899070263 -1.17980337143
5.75431156158 -1.92959594727 -1.17973530293
5.74046087265 -1.90356433392 -1.17558050156
5.75678634644 -1.88757777214 -1.17762112617
5.76278543472 -1.86816942692 -1.17756032944
5.74278926849 -1.84043204784 -1.17220687866
5.75995826721 -1.82466173172 -1.17445611954
5.74790334702 -1.799659729 -1.17076122761
5.75785064697 -1.78159880638 -1.17156398296
5.74901723862 -1.75776648521 -1.16856086254
5.76121377945 -1.74039506912 -1.16984736919
5.75361394882 -1.71706914902 -1.16712856293
5.74969339371 -1.69492554665 -1.16517400742
5.75851154327 -1.67656064034 -1.16581523418
5.75542593002 -1.65475010872 -1.16406083107
5.75004863739 -1.63235151768 -1.16185975075
5.76105117798 -1.61462235451 -1.16298258305
5.74830341339 -1.59028208256 -1.15932631493
5.76596975327 -1.57437694073 -1.16181814671
5.75142526627 -1.5497033596 -1.15783405304
5.76561021805 -1.53280949593 -1.15964853764
5.74419641495 -1.50651443005 -1.15431916714
5.76213645935 -1.49058926105 -1.1569133997
5.7557721138 -1.46837127209 -1.15464067459
5.74755716324 -1.44576823711 -1.15201377869
5.75796031952 -1.42787539959 -1.1531329155
5.76536273956 -1.40920913219 -1.15366256237
5.76699209213 -1.38913321495 -1.15305018425
5.76124095917 -1.36732709408 -1.15097725391
5.7763633728 -1.35047447681 -1.15308737755
5.78500413895 -1.33205425739 -1.15391409397
5.7735209465 -1.30904185772 -1.15074169636
5.76806306839 -1.28748643398 -1.14878714085
5.75710916519 -1.2647922039 -1.14575445652
5.77174472809 -1.24773669243 -1.14782810211
5.7860956192 -1.23054742813 -1.14985513687
5.7793006897 -1.20886337757 -1.14769291878
5.76255083084 -1.18520760536 -1.14357101917
5.75812673569 -1.16418886185 -1.14191198349
5.7503657341 -1.1425652504 -1.13960683346
5.76834344864 -1.12604689598 -1.14241492748
5.76068592072 -1.10451459885 -1.14015865326
5.75786352158 -1.08397138119 -1.13887417316
5.76320314407 -1.06498146057 -1.13921773434
5.77485704422 -1.04712402821 -1.14082098007
5.7789516449 -1.02786576748 -1.14094257355
5.7774772644 -1.00763165951 -1.13997817039
5.77441358566 -0.987159490585 -1.13871407509
5.77415895462 -0.967201828957 -1.13801813126
5.77422046661 -0.947320103645 -1.13739776611
5.76948785782 -0.9266898036 -1.13584709167
5.76793003082 -0.906612455845 -1.13493561745
5.78504276276 -0.889437317848 -1.13770973682
5.77509593964 -0.868097603321 -1.13517475128
5.77952098846 -0.848957121372 -1.13547861576
5.76201820374 -0.826659917831 -1.13148903847
5.76961994171 -0.80801731348 -1.13244342804
5.77267742157 -0.788720309734 -1.13251817226
5.77314901352 -0.769076049328 -1.13209843636
5.77654409409 -0.749825656414 -1.13226485252
5.76845598221 -0.729117810726 -1.13019394875
5.78362083435 -0.711341679096 -1.13269150257
5.76985216141 -0.690018355846 -1.12953555584
5.77833271027 -0.671389579773 -1.13074874878
5.78139257431 -0.652107059956 -1.1309132576
5.77894687653 -0.632216215134 -1.13001382351
5.77405261993 -0.612096905708 -1.12864923477
5.78938293457 -0.594100058079 -1.13125014305
5.78528738022 -0.574085116386 -1.13006734848
5.77944612503 -0.553943693638 -1.1285572052
5.78185606003 -0.534617304802 -1.1286714077
5.78338050842 -0.515207886696 -1.12862551212
5.77104568481 -0.494611948729 -1.12588834763
5.78749895096 -0.476480662823 -1.12878024578
5.76291465759 -0.455008983612 -1.12368154526
5.77668714523 -0.436612576246 -1.12607526779
5.77805328369 -0.417237251997 -1.1260625124
5.78129911423 -0.39799156785 -1.12642872334
5.77636909485 -0.378197699785 -1.12521469593
5.77568101883 -0.358709037304 -1.12484014034
5.77316617966 -0.339125782251 -1.12412261963
5.79437351227 -0.320880770683 -1.1280361414
5.76687002182 -0.299966663122 -1.1224796772
5.78233671188 -0.281334906816 -1.1253002882
5.77548789978 -0.261594802141 -1.12379038334
5.76707458496 -0.241840973496 -1.12198925018
5.78742408752 -0.223258674145 -1.12579631805
5.77785873413 -0.203491181135 -1.12379658222
5.78774833679 -0.184412375093 -1.12559354305
5.77653217316 -0.164669677615 -1.12329852581
5.77511739731 -0.145252481103 -1.1229224205
5.77980709076 -0.125981092453 -1.12374579906
5.77908325195 -0.106581240892 -1.12352931499
5.77984905243 -0.087211124599 -1.12361502647
5.78087854385 -0.0678409188986 -1.12376463413
5.76334095001 -0.0483097061515 -1.12031757832
5.78412151337 -0.0290899015963 -1.12433183193
5.78994226456 -0.00970631837845 -1.12545061111
5.7747426033 0.00968083739281 -1.12249612808
6.60447883606 0.0332156978548 -1.28379499912
6.60658025742 0.0553779415786 -1.2842322588
6.58927726746 0.0773278027773 -1.28091192245
6.59931182861 0.0995758548379 -1.28292036057
6.59754228592 0.121675744653 -1.28264844418
6.60239124298 0.143910765648 -1.28367769718
6.59231710434 0.165806218982 -1.28181993961
6.58191680908 0.187628507614 -1.2799128294
6.57324647903 0.209440335631 -1.27835607529
6.57491540909 0.231562837958 -1.27882456779
6.5930223465 0.254335850477 -1.28250491619
6.57942342758 0.27590662241 -1.28003239632
6.56562805176 0.297383368015 -1.27753531933
6.57894325256 0.320093154907 -1.28032779694
6.58034944534 0.342280209064 -1.2808175087
6.57628583908 0.364181518555 -1.28025710583
6.54732990265 0.384601473808 -1.27486383915
6.55871391296 0.407340705395 -1.27733933926
6.53978395462 0.428180962801 -1.27392506599
6.55255794525 0.451085954905 -1.2767008543
6.55864477158 0.473604291677 -1.27818894386
6.53903150558 0.494231939316 -1.27468240261
6.54846000671 0.517031490803 -1.27685105801
6.52967882156 0.537583827972 -1.27353334427
6.5393819809 0.560462832451 -1.27578520775
6.53391456604 0.582068562508 -1.27509200573
6.5280585289 0.603614628315 -1.2743370533
6.53008556366 0.625890433788 -1.2751352787
6.53752946854 0.648731589317 -1.2770062685
6.53722000122 0.67084223032 -1.27737808228
6.52732515335 0.691949903965 -1.27589070797
6.53905010223 0.715371489525 -1.27864420414
6.52770471573 0.736286640167 -1.27690136433
6.51278781891 0.756726562977 -1.27447247505
6.50716257095 0.778193533421 -1.2738751173
6.51632165909 0.801458358765 -1.27618706226
6.51373052597 0.82331854105 -1.27621304989
6.50198554993 0.843991756439 -1.27445912361
6.49614715576 0.865391016006 -1.27387630939
6.49091100693 0.886852502823 -1.27342545986
6.49878406525 0.910134494305 -1.27556157112
6.49473571777 0.93178075552 -1.27537298203
6.47961997986 0.951795041561 -1.27302420139
6.49221658707 0.975893259048 -1.27613461018
6.47655296326 0.995755434036 -1.27370488644
6.46292352676 1.01585268974 -1.27168715
6.4902973175 1.04246556759 -1.27775394917
6.47769832611 1.06273293495 -1.27596783638
6.47153282166 1.08401560783 -1.27546215057
6.46571063995 1.10533952713 -1.27503788471
6.46853065491 1.12815618515 -1.27633273602
6.4599981308 1.14899921417 -1.2754021883
6.4760055542 1.17425954342 -1.27933263779
6.46398687363 1.19447910786 -1.27774226665
6.44818305969 1.21393048763 -1.27541565895
6.44657897949 1.23602294922 -1.27591097355
6.44216251373 1.257584095 -1.27586424351
6.44392347336 1.28037130833 -1.27705597878
6.44394540787 1.30284893513 -1.27791881561
6.43739318848 1.32400524616 -1.2774926424
6.4328250885 1.34556174278 -1.27747416496
6.42870521545 1.36721324921 -1.27755916119
6.42780637741 1.38956427574 -1.27829921246
6.42109632492 1.41066503525 -1.27789819241
6.41793441772 1.43254387379 -1.2782176733
6.41859149933 1.4553000927 -1.27931308746
6.41041612625 1.47606158257 -1.27866292
6.41600656509 1.50001871586 -1.28077399731
6.40442562103 1.51997554302 -1.27947235107
6.40782928467 1.54349589348 -1.28117895126
6.38772821426 1.56133198738 -1.27819943428
6.39220619202 1.58515751362 -1.28015172482
7.47953128815 1.88143742085 -1.49916267395
7.47163009644 1.90610861778 -1.4988515377
7.48014974594 1.9350168705 -1.50185370445
7.46302366257 1.95730638504 -1.49972426891
7.45579338074 1.9821511507 -1.4995983839
7.44217443466 2.00527024269 -1.49820303917
7.42637872696 2.02774548531 -1.49638342857
7.42801237106 2.05497765541 -1.49809241295
7.44240570068 2.0858476162 -1.50239741802
7.43365716934 2.11030244827 -1.50205111504
7.4112071991 2.13080573082 -1.49895000458
7.41011238098 2.15741562843 -1.50018322468
7.39792251587 2.18079948425 -1.49918723106
7.38934183121 2.20522475243 -1.49893832207
7.37419319153 2.22765731812 -1.49737203121
7.39795017242 2.26192903519 -1.50372743607
7.37188339233 2.28101396561 -1.49997508526
7.36098337173 2.30471253395 -1.4993211031
7.35045957565 2.32850670815 -1.49875938892
7.34933233261 2.35529232025 -1.50013136864
7.34381818771 2.38070583344 -1.50062668324
7.32217121124 2.40084791183 -1.49783968925
7.325548172 2.4291870594 -1.50018823147
7.32846021652 2.45745587349 -1.50246345997
7.29919433594 2.47489762306 -1.49815618992
7.29071378708 2.49930810928 -1.49812710285
7.29582595825 2.52842831612 -1.5009111166
7.27590513229 2.54888105392 -1.4985626936
7.27586364746 2.57628726959 -1.5003247261
7.26356697083 2.59937286377 -1.49957787991
7.26283597946 2.62661361694 -1.50123655796
7.24424600601 2.64738941193 -1.49922025204
7.22866773605 2.66920351982 -1.49784004688
7.22936725616 2.69703960419 -1.49985027313
7.23681926727 2.72749519348 -1.50328505039
7.19838190079 2.7406065464 -1.49720096588
7.19554328918 2.76718354225 -1.49853181839
7.19757986069 2.79570388794 -1.50089967251
7.19011592865 2.82058525085 -1.50130689144
7.17786216736 2.84358429909 -1.50073051453
7.16880273819 2.86784052849 -1.50083827972
7.15181732178 2.88889908791 -1.49930167198
7.14645290375 2.91464066505 -1.50021731853
7.12953042984 2.9356572628 -1.49872267246
7.11186933517 2.95631122589 -1.49708533287
7.11777544022 2.9867939949 -1.50042819977
7.10863780975 3.01102995872 -1.50062167645
7.0918302536 3.0319943428 -1.49921119213
7.07434368134 3.05261301994 -1.49766969681
7.07307434082 3.08023667336 -1.49957895279
7.06695222855 3.10579967499 -1.50048029423
7.0484662056 3.12591362 -1.49877214432
7.03645849228 3.14886260033 -1.49845540524
7.04020690918 3.17891430855 -1.50151491165
7.01619911194 3.19643735886 -1.49867200851
7.01109218597 3.22254014015 -1.49988055229
6.99862194061 3.24527454376 -1.49953210354
6.99620103836 3.27269721031 -1.50135600567
6.97686624527 3.29220843315 -1.49956715107
6.96226882935 3.31390666962 -1.49880933762
6.94823360443 3.33584618568 -1.49818730354
6.94880914688 3.36483693123 -1.50073552132
6.89267444611 3.36622977257 -1.49104130268
6.84017801285 3.36904215813 -1.4821202755
6.78655576706 3.37095236778 -1.47294223309
6.73069524765 3.37138748169 -1.46326339245
6.67198944092 3.37001132965 -1.45294892788
6.61946058273 3.37138271332 -1.44396328926
6.56543159485 3.37163543701 -1.43463540077
6.50392484665 3.36765384674 -1.42365455627
6.45838737488 3.37158226967 -1.41615319252
6.40414571762 3.37063741684 -1.40672969818
6.35775947571 3.37349271774 -1.39901709557
6.30556631088 3.37294077873 -1.39001274109
6.25315380096 3.37191772461 -1.38094329834
6.20802879333 3.37450027466 -1.37346875668
6.15331554413 3.37153553963 -1.36385726929
6.10245847702 3.37032175064 -1.35508203506
6.05098867416 3.36842083931 -1.34615314007
6.00641584396 3.37003660202 -1.33874320984
5.95917129517 3.36984872818 -1.33072400093
5.91406059265 3.37055826187 -1.3231664896
5.86899375916 3.37099289894 -1.31560492516
5.82308197021 3.37063741684 -1.30783927441
5.76706457138 3.36407709122 -1.29778397083
5.74620819092 3.37778329849 -1.29563176632
5.68836545944 3.36949467659 -1.28512966633
5.64776802063 3.37107777596 -1.27850413322
5.60516786575 3.37119030952 -1.27141225338
5.55203294754 3.36463236809 -1.26191139221
5.52862119675 3.37584042549 -1.25915563107
5.47958707809 3.37117362022 -1.25055539608
5.43484973907 3.36882090569 -1.24291610718
5.41582107544 3.38221359253 -1.24115085602
5.37039279938 3.37892436981 -1.23332929611
5.33485937119 3.3815882206 -1.22776579857
5.29573822021 3.38173317909 -1.22136497498
5.24848508835 3.37638473511 -1.21307098866
5.20940256119 3.3759906292 -1.20664739609
5.17278385162 3.37694048882 -1.20078122616
5.13675403595 3.37803578377 -1.19503986835
5.09586668015 3.37567591667 -1.18815398216
5.06317329407 3.37849831581 -1.18316566944
5.02788448334 3.37936925888 -1.17756044865
4.99358606339 3.38067770004 -1.17217564583
4.9496049881 3.37515878677 -1.16450154781
4.92181491852 3.38043928146 -1.160623312
4.88196516037 3.37721467018 -1.15388989449
4.84574556351 3.37623691559 -1.14799833298
4.80824756622 3.37411379814 -1.14178836346
4.77703762054 3.37617278099 -1.13705873489
4.7382106781 3.37260985374 -1.13050210476
4.7233247757 3.38593149185 -1.12965273857
4.68980264664 3.3857626915 -1.12434411049
4.63985347748 3.37342453003 -1.11507451534
4.60866689682 3.37442803383 -1.11029243469
4.59029245377 3.38467407227 -1.1085934639
4.55091285706 3.37924981117 -1.10181295872
4.51759052277 3.37806344032 -1.09648132324
4.50079584122 3.38909244537 -1.09515690804
4.45227432251 3.37600684166 -1.08609855175
4.41829681396 3.37363362312 -1.0805631876
4.39136743546 3.37643885612 -1.07673978806
4.3613576889 3.37669253349 -1.0721514225
4.32999134064 3.37568831444 -1.06721699238
4.30020046234 3.37570476532 -1.06265807152
4.27517938614 3.37929129601 -1.05926883221
4.24635505676 3.37970161438 -1.0549287796
4.22609043121 3.38677978516 -1.05270934105
4.18456220627 3.37660217285 -1.04517900944
4.15156030655 3.3730173111 -1.03975498676
4.11626148224 3.36731219292 -1.03373622894
4.10690927505 3.38270950317 -1.03423011303
4.07885980606 3.38262319565 -1.03001666069
4.04093980789 3.37410616875 -1.02329194546
4.01632642746 3.3764731884 -1.0199201107
3.98991012573 3.37716197968 -1.01608157158
3.9676399231 3.38121032715 -1.01329147816
3.92546391487 3.36805295944 -1.00539851189
3.91312098503 3.38030695915 -1.0051343441
3.88495969772 3.37879180908 -1.00080502033
3.85546803474 3.37591338158 -0.996117949486
3.83446097374 3.38029932976 -0.993613064289
3.80107116699 3.37358021736 -0.987886309624
3.77398276329 3.37222647667 -0.983779072762
3.76105189323 3.38341879845 -0.983359873295
3.7369325161 3.38445878029 -0.980015099049
3.70318984985 3.37656807899 -0.974129498005
3.68360328674 3.3813970089 -0.971954107285
3.65706849098 3.37970256805 -0.967937111855
3.63876914978 3.38548135757 -0.966092646122
3.59551978111 3.36780309677 -0.957602441311
3.58519029617 3.3807656765 -0.957864940166
3.56193423271 3.38146924973 -0.954675197601
3.52965331078 3.37339568138 -0.9490493536
3.50463008881 3.37203598022 -0.945355713367
3.48937559128 3.37996149063 -0.944292485714
3.47142291069 3.38520479202 -0.942500352859
3.45113730431 3.38807177544 -0.940071642399
3.41308641434 3.37326312065 -0.932782351971
3.39032268524 3.37331032753 -0.929646909237
3.36643195152 3.37207579613 -0.926190853119
3.34555768967 3.37371397018 -0.923554718494
3.33316731453 3.38383579254 -0.92326104641
3.30302929878 3.3758046627 -0.918043017387
3.28115320206 3.3760163784 -0.915103673935
3.2680118084 3.38512992859 -0.914598882198
3.24782252312 3.38686919212 -0.912121534348
3.2151286602 3.37535691261 -0.906112968922
3.19207262993 3.37372946739 -0.902797937393
3.16378545761 3.36636924744 -0.897984743118
3.1533446312 3.37788319588 -0.898230791092
3.13475012779 3.38061666489 -0.896157801151
3.09704446793 3.3624958992 -0.888596594334
3.07989168167 3.36645364761 -0.886908590794
3.06658053398 3.37455272675 -0.886328577995
3.05564928055 3.38525891304 -0.886444687843
3.03436112404 3.38441944122 -0.88355588913
3.0062789917 3.37580156326 -0.87866973877
3.00271964073 3.39465284348 -0.880950987339
2.97676277161 3.38813138008 -0.876663565636
2.94521093369 3.37497329712 -0.870699048042
2.92841362953 3.37852406502 -0.869077146053
2.91224980354 3.38272500038 -0.867641210556
2.88755297661 3.37687110901 -0.863651633263
2.8649289608 3.37324523926 -0.860262811184
2.84559106827 3.37333393097 -0.857847452164
2.82976436615 3.37748408318 -0.856485307217
2.80789256096 3.37429666519 -0.853284835815
2.78652334213 3.3715441227 -0.850221455097
2.76440429688 3.36771178246 -0.846912920475
2.74500775337 3.36703848839 -0.844424366951
2.72911119461 3.37055158615 -0.843005895615
2.71343016624 3.37425494194 -0.841652035713
2.69119572639 3.36967802048 -0.838254988194
2.67418646812 3.37150073051 -0.836473226547
2.6617064476 3.37897396088 -0.836108505726
2.6366622448 3.37036657333 -0.831786513329
2.63173174858 3.38740563393 -0.833809316158
2.59987998009 3.36966705322 -0.82729268074
2.58304667473 3.37115979195 -0.825528264046
2.57510018349 3.38423109055 -0.826610267162
2.56260991096 3.39135169983 -0.826246201992
2.5240855217 3.36375689507 -0.817456781864
2.51779460907 3.3789126873 -0.819083809853
2.50657176971 3.3874976635 -0.819123029709
2.47584009171 3.36953449249 -0.81276756525
2.46651124954 3.38053369522 -0.813421368599
2.44513916969 3.37494897842 -0.810100376606
2.4269528389 3.37359619141 -0.807817995548
2.41080951691 3.37496876717 -0.806206583977
2.389970541 3.36962461472 -0.80301129818
2.3771417141 3.37546372414 -0.802498936653
2.36259555817 3.3788163662 -0.801408231258
2.348706007 3.38304901123 -0.800539851189
2.32371139526 3.37111854553 -0.795868694782
2.31241440773 3.37891793251 -0.795875132084
2.29724359512 3.38101696968 -0.794550836086
2.26570796967 3.35877418518 -0.787534058094
2.26072454453 3.37574529648 -0.789731621742
2.23775482178 3.36580014229 -0.785645365715
2.22866296768 3.37662553787 -0.786423623562
2.2094707489 3.37208557129 -0.783636510372
2.19640922546 3.37679457664 -0.783015072346
2.17860984802 3.37412643433 -0.780698239803
2.15725278854 3.36576008797 -0.7770845294
2.14705657959 3.37470412254 -0.777483105659
2.14039897919 3.38927745819 -0.779182910919
2.11596870422 3.37560844421 -0.774405062199
2.10013127327 3.3754389286 -0.772746503353
2.0768327713 3.36307883263 -0.768318414688
2.07031798363 3.37780976295 -0.770093679428
2.05517196655 3.37847018242 -0.768668949604
2.03745770454 3.37478208542 -0.766271293163
2.02684187889 3.38278031349 -0.766540050507
2.00619626045 3.37392950058 -0.763005912304
1.98921084404 3.37104153633 -0.760840237141
1.97172820568 3.36715722084 -0.758467257023
1.95812404156 3.369784832 -0.75757598877
1.94026529789 3.36497235298 -0.755027353764
1.92755782604 3.36898636818 -0.754473686218
1.91489422321 3.37303972244 -0.753939330578
1.90358924866 3.37946748734 -0.753945231438
1.88561940193 3.37397050858 -0.751304209232
1.8642411232 3.36213898659 -0.747273564339
1.86094689369 3.38289284706 -0.750495374203
1.84718024731 3.38469004631 -0.74951583147
1.82878530025 3.37786769867 -0.746643126011
1.8100631237 3.37022709846 -0.743608593941
1.79828190804 3.37539219856 -0.743413746357
1.78229939938 3.37259340286 -0.741477012634
1.7687087059 3.37421393394 -0.740525364876
1.75068998337 3.36724662781 -0.737703919411
1.73768997192 3.36980009079 -0.736982762814
1.72614407539 3.37514209747 -0.736881256104
1.710719347 3.37282943726 -0.735119879246
1.70016825199 3.38007116318 -0.735451698303
1.68730425835 3.38270163536 -0.734789013863
1.67423069477 3.38485741615 -0.734033823013
1.65499484539 3.37438988686 -0.730556368828
1.63882553577 3.36995434761 -0.72840243578
1.63212919235 3.38499450684 -0.730466365814
1.61476838589 3.37789130211 -0.727761149406
1.58954584599 3.35398244858 -0.721457719803
1.58551514149 3.37466788292 -0.724759638309
1.56983494759 3.37061047554 -0.722753882408
1.55112373829 3.35982322693 -0.719321548939
1.54236066341 3.37049102783 -0.720494270325
1.52691662312 3.36652708054 -0.718548536301
1.52306723595 3.38819289207 -0.722078859806
1.50683355331 3.38235974312 -0.719754934311
1.49081373215 3.37681269646 -0.717506885529
1.47945094109 3.3817179203 -0.717491090298
1.46389710903 3.37695360184 -0.715434908867
1.44712269306 3.36916851997 -0.712753653526
1.43941569328 3.38245463371 -0.714539349079
1.42223346233 3.3734254837 -0.711620628834
1.40839898586 3.37215089798 -0.710351645947
1.3970541954 3.37677979469 -0.71033602953
1.38197302818 3.37229037285 -0.708412945271
1.36776006222 3.36976337433 -0.706914782524
1.35659909248 3.37469100952 -0.706990301609
1.33793532848 3.36077928543 -0.703132152557
1.32824134827 3.36925816536 -0.703970372677
1.31529033184 3.36947321892 -0.703089952469
1.30265772343 3.37042832375 -0.702373921871
1.29238951206 3.3774933815 -0.702939271927
1.27479362488 3.36527037621 -0.699501872063
1.26101732254 3.36289572716 -0.69812554121
1.25063359737 3.36952543259 -0.698627471924
1.23903667927 3.37290358543 -0.698462605476
1.22715055943 3.3754696846 -0.698138058186
1.20600163937 3.35225582123 -0.692496597767
1.2039513588 3.38211345673 -0.697826683521
1.18676066399 3.36953759193 -0.694407045841
1.17377519608 3.36867237091 -0.693413794041
1.161916852 3.37097215652 -0.693081378937
1.15203845501 3.37904429436 -0.693942964077
1.1369124651 3.37164759636 -0.691637277603
1.12485396862 3.37319850922 -0.691177845001
1.11559975147 3.38320374489 -0.692457616329
1.10271823406 3.38222622871 -0.691496908665
1.08157110214 3.35549759865 -0.685286998749
1.07206451893 3.3645966053 -0.686407387257
